89.5,25.05,0
89.5,25.1,0
89.5,25.15,0
89.5,25.2,0
89.5,25.25,0
89.5,25.3,0
89.5,25.35,0
89.5,25.4,0
89.5,25.45,0
89.5,25.5,0
89.5,25.55,0
89.5,25.6,0
89.5,25.65,0
89.55,22.7,0
89.55,22.75,0
89.55,22.8,0
89.55,22.85,0
89.55,22.9,0
89.55,22.95,0
89.55,23,0
89.55,23.05,0
89.55,23.1,0
89.55,23.15,0
89.55,23.2,0
89.55,23.25,0
89.55,23.3,0
89.55,23.35,0
89.55,23.4,0
89.55,23.45,0.0759227424860001
89.55,23.5,0.0744993537664413
89.55,23.55,0.0731365904211998
89.55,23.6,0.0718746408820152
89.55,23.65,0.0707384943962097
89.55,23.7,0.0697519183158875
89.55,23.75,0.0689269006252289
89.55,23.8,0.0682704597711563
89.55,23.85,0.0677845478057861
89.55,23.9,0
89.55,23.95,0
89.55,24,0
89.55,24.05,0
89.55,24.1,0
89.55,24.15,0
89.55,24.2,0
89.55,24.25,0
89.55,24.3,0
89.55,24.35,0
89.55,24.4,0
89.55,24.45,0
89.55,24.5,0
89.55,24.55,0
89.55,24.6,0
89.55,24.65,0
89.55,24.7,0
89.55,24.75,0
89.55,24.8,0
89.55,24.85,0
89.55,24.9,0
89.55,24.95,0
89.55,25,0
89.55,25.05,0
89.55,25.1,0
89.55,25.15,0
89.55,25.2,0
89.55,25.25,0
89.55,25.3,0
89.55,25.35,0
89.55,25.4,0
89.55,25.45,0
89.55,25.5,0
89.55,25.55,0
89.55,25.6,0
89.55,25.65,0
89.6,22.7,0
89.6,22.75,0
89.6,22.8,0
89.6,22.85,0
89.6,22.9,0
89.6,22.95,0
89.6,23,0
89.6,23.05,0
89.6,23.1,0
89.6,23.15,0
89.6,23.2,0
89.6,23.25,0.0866429284214973
89.6,23.3,0.0851362645626068
89.6,23.35,0.0834634378552437
89.6,23.4,0.0816998109221458
89.6,23.45,0.0799200832843781
89.6,23.5,0.0782033279538155
89.6,23.55,0.076586477458477
89.6,23.6,0.0751112252473831
89.6,23.65,0.0738098993897438
89.6,23.7,0.0726996511220932
89.6,23.75,0.0717985481023788
89.6,23.8,0.0711105316877365
89.6,23.85,0.0706385746598244
89.6,23.9,0
89.6,23.95,0
89.6,24,0
89.6,24.05,0
89.6,24.1,0
89.6,24.15,0
89.6,24.2,0
89.6,24.25,0
89.6,24.3,0
89.6,24.35,0
89.6,24.4,0
89.6,24.45,0
89.6,24.5,0
89.6,24.55,0
89.6,24.6,0
89.6,24.65,0
89.6,24.7,0
89.6,24.75,0
89.6,24.8,0
89.6,24.85,0
89.6,24.9,0
89.6,24.95,0
89.6,25,0
89.6,25.05,0
89.6,25.1,0
89.6,25.15,0.0623736195266247
89.6,25.2,0
89.6,25.25,0
89.6,25.3,0
89.6,25.35,0
89.6,25.4,0
89.6,25.45,0
89.6,25.5,0
89.6,25.55,0
89.6,25.6,0
89.6,25.65,0
89.65,22.7,0
89.65,22.75,0
89.65,22.8,0
89.65,22.85,0
89.65,22.9,0
89.65,22.95,0
89.65,23,0
89.65,23.05,0
89.65,23.1,0
89.65,23.15,0
89.65,23.2,0.0945355147123337
89.65,23.25,0.092882014811039
89.65,23.3,0.090916596353054
89.65,23.35,0.0887764096260071
89.65,23.4,0.0865669399499893
89.65,23.45,0.08437829464674
89.65,23.5,0.0822813436388969
89.65,23.55,0.0803458243608475
89.65,23.6,0.0786172077059746
89.65,23.65,0.077119842171669
89.65,23.7,0.0758795142173767
89.65,23.75,0.0749082490801811
89.65,23.8,0.07420664280653
89.65,23.85,0.0737651810050011
89.65,23.9,0
89.65,23.95,0
89.65,24,0
89.65,24.05,0
89.65,24.1,0
89.65,24.15,0
89.65,24.2,0
89.65,24.25,0
89.65,24.3,0
89.65,24.35,0
89.65,24.4,0
89.65,24.45,0
89.65,24.5,0
89.65,24.55,0
89.65,24.6,0
89.65,24.65,0
89.65,24.7,0
89.65,24.75,0
89.65,24.8,0
89.65,24.85,0
89.65,24.9,0.0727587342262268
89.65,24.95,0.0710927918553352
89.65,25,0.0696278065443039
89.65,25.05,0.0682762786746025
89.65,25.1,0.0669784024357796
89.65,25.15,0.0656988620758057
89.65,25.2,0.0644133761525154
89.65,25.25,0
89.65,25.3,0
89.65,25.35,0
89.65,25.4,0
89.65,25.45,0
89.65,25.5,0
89.65,25.55,0
89.65,25.6,0
89.65,25.65,0
89.7,22.7,0
89.7,22.75,0
89.7,22.8,0
89.7,22.85,0
89.7,22.9,0
89.7,22.95,0
89.7,23,0
89.7,23.05,0.105212733149529
89.7,23.1,0.105168126523495
89.7,23.15,0.104189857840538
89.7,23.2,0.102471709251404
89.7,23.25,0.100206069648266
89.7,23.3,0.0976075381040573
89.7,23.35,0.0948371663689613
89.7,23.4,0.0920395180583
89.7,23.45,0.0893299281597137
89.7,23.5,0.0867912620306015
89.7,23.55,0.0844698175787926
89.7,23.6,0.0824298337101936
89.7,23.65,0.080715000629425
89.7,23.7,0.0793275311589241
89.7,23.75,0.0782863646745682
89.7,23.8,0.0775888860225677
89.7,23.85,0.0772142708301544
89.7,23.9,0.0771384686231613
89.7,23.95,0.0773334130644798
89.7,24,0.0777816623449326
89.7,24.05,0
89.7,24.1,0
89.7,24.15,0
89.7,24.2,0
89.7,24.25,0
89.7,24.3,0
89.7,24.35,0
89.7,24.4,0
89.7,24.45,0
89.7,24.5,0
89.7,24.55,0
89.7,24.6,0
89.7,24.65,0
89.7,24.7,0
89.7,24.75,0
89.7,24.8,0.0834454968571663
89.7,24.85,0.0800818502902985
89.7,24.9,0.077543132007122
89.7,24.95,0.0755290761590004
89.7,25,0.0738232657313347
89.7,25.05,0.0722868964076042
89.7,25.1,0.0708308517932892
89.7,25.15,0.0694039165973663
89.7,25.2,0.0679728835821152
89.7,25.25,0.0665226578712463
89.7,25.3,0.0650448128581047
89.7,25.35,0.0635362416505814
89.7,25.4,0.0619976036250591
89.7,25.45,0
89.7,25.5,0
89.7,25.55,0
89.7,25.6,0
89.7,25.65,0
89.75,22.7,0
89.75,22.75,0
89.75,22.8,0
89.75,22.85,0
89.75,22.9,0.108901306986809
89.75,22.95,0.112563535571098
89.75,23,0.115163430571556
89.75,23.05,0.116390444338322
89.75,23.1,0.116166055202484
89.75,23.15,0.114659763872623
89.75,23.2,0.11215378344059
89.75,23.25,0.108986906707287
89.75,23.3,0.105469524860382
89.75,23.35,0.101831674575806
89.75,23.4,0.0982572734355927
89.75,23.45,0.0948693156242371
89.75,23.5,0.0917518958449364
89.75,23.55,0.088980570435524
89.75,23.6,0.086588978767395
89.75,23.65,0.0846164599061012
89.75,23.7,0.0830902010202408
89.75,23.75,0.0820034444332123
89.75,23.8,0.0813454985618591
89.75,23.85,0.0810823813080788
89.75,23.9,0.0811796933412552
89.75,23.95,0.0815879106521606
89.75,24,0.0822733268141747
89.75,24.05,0.0832274556159973
89.75,24.1,0
89.75,24.15,0.0862670168280602
89.75,24.2,0.0888292640447617
89.75,24.25,0.0927795097231865
89.75,24.3,0.0990972146391869
89.75,24.35,0.109121955931187
89.75,24.4,0.123980827629566
89.75,24.45,0.142781227827072
89.75,24.5,0.152197167277336
89.75,24.55,0.150155067443848
89.75,24.6,0.138186350464821
89.75,24.65,0.120841518044472
89.75,24.7,0.107189692556858
89.75,24.75,0.0974748209118843
89.75,24.8,0.090802825987339
89.75,24.85,0.0862195938825607
89.75,24.9,0.0829769447445869
89.75,24.95,0.0805331692099571
89.75,25,0.0785406529903412
89.75,25.05,0.076788492500782
89.75,25.1,0.0751489773392677
89.75,25.15,0.0735509991645813
89.75,25.2,0.0719505995512009
89.75,25.25,0.0703282132744789
89.75,25.3,0.0686734765768051
89.75,25.35,0.0669831931591034
89.75,25.4,0.0652573779225349
89.75,25.45,0
89.75,25.5,0
89.75,25.55,0
89.75,25.6,0
89.75,25.65,0
89.8,22.7,0
89.8,22.75,0
89.8,22.8,0
89.8,22.85,0.114352181553841
89.8,22.9,0.120388895273209
89.8,22.95,0.125648334622383
89.8,23,0.129386857151985
89.8,23.05,0.13106307387352
89.8,23.1,0.130512610077858
89.8,23.15,0.128052175045013
89.8,23.2,0.124267503619194
89.8,23.25,0.119718916714191
89.8,23.3,0.114871263504028
89.8,23.35,0.110020644962788
89.8,23.4,0.105402775108814
89.8,23.45,0.101136684417725
89.8,23.5,0.0972950905561447
89.8,23.55,0.0939457044005394
89.8,23.6,0.0911376178264618
89.8,23.65,0.0888948813080788
89.8,23.7,0.0872315838932991
89.8,23.75,0.0861435383558273
89.8,23.8,0.0855991989374161
89.8,23.85,0.0855425670742989
89.8,23.9,0.0859029144048691
89.8,23.95,0.0866169854998589
89.8,24,0.0876187533140182
89.8,24.05,0.0888915210962296
89.8,24.1,0.0904919430613518
89.8,24.15,0.0926263406872749
89.8,24.2,0.0957599878311157
89.8,24.25,0.100882582366467
89.8,24.3,0.109952129423618
89.8,24.35,0.126760065555573
89.8,24.4,0.154214099049568
89.8,24.45,0.184112623333931
89.8,24.5,0.204519435763359
89.8,24.55,0.197420850396156
89.8,24.6,0.173039361834526
89.8,24.65,0.149323999881744
89.8,24.7,0.125699520111084
89.8,24.75,0.109486028552055
89.8,24.8,0.0996338501572609
89.8,24.85,0.0933931991457939
89.8,24.9,0.089239127933979
89.8,24.95,0.0862656161189079
89.8,25,0.0839260593056679
89.8,25.05,0.0819142833352089
89.8,25.1,0.0800530314445496
89.8,25.15,0.0782477781176567
89.8,25.2,0.0764413774013519
89.8,25.25,0.0746098831295967
89.8,25.3,0.0727398097515106
89.8,25.35,0.0708295181393623
89.8,25.4,0.0688786134123802
89.8,25.45,0
89.8,25.5,0
89.8,25.55,0
89.8,25.6,0
89.8,25.65,0
89.85,22.7,0
89.85,22.75,0
89.85,22.8,0
89.85,22.85,0.126340121030807
89.85,22.9,0.135068163275719
89.85,22.95,0.143075659871101
89.85,23,0.146292611956596
89.85,23.05,0.147503405809402
89.85,23.1,0.146838396787643
89.85,23.15,0.144683331251144
89.85,23.2,0.139835894107819
89.85,23.25,0.133076995611191
89.85,23.3,0.126240462064743
89.85,23.35,0.119699761271477
89.85,23.4,0.113661840558052
89.85,23.45,0.108246862888336
89.85,23.5,0.103508241474628
89.85,23.55,0.0994727909564972
89.85,23.6,0.0961750447750092
89.85,23.65,0.0936371013522148
89.85,23.7,0.0918781235814095
89.85,23.75,0.0908705443143845
89.85,23.8,0.0905576944351196
89.85,23.85,0.0908496156334877
89.85,23.9,0.0916387513279915
89.85,23.95,0.0928174555301666
89.85,24,0.0942802876234055
89.85,24.05,0.0959875956177711
89.85,24.1,0.0979922190308571
89.85,24.15,0.100523419678211
89.85,24.2,0.104193404316902
89.85,24.25,0.110449261963367
89.85,24.3,0.122674092650414
89.85,24.35,0.147662609815598
89.85,24.4,0.184031635522842
89.85,24.45,0.245360285043716
89.85,24.5,0.307314604520798
89.85,24.55,0.282452791929245
89.85,24.6,0.220345973968506
89.85,24.65,0.176279693841934
89.85,24.7,0.14881195127964
89.85,24.75,0.12517674267292
89.85,24.8,0.110478833317757
89.85,24.85,0.101976349949837
89.85,24.9,0.0966545790433884
89.85,24.95,0.093016192317009
89.85,25,0.0902428925037384
89.85,25.05,0.0879024788737297
89.85,25.1,0.0857574045658112
89.85,25.15,0.0836853235960007
89.85,25.2,0.0816138759255409
89.85,25.25,0.0795138031244278
89.85,25.3,0.077369824051857
89.85,25.35,0.0751805305480957
89.85,25.4,0.0729464069008827
89.85,25.45,0
89.85,25.5,0
89.85,25.55,0
89.85,25.6,0
89.85,25.65,0
89.9,22.7,0
89.9,22.75,0
89.9,22.8,0
89.9,22.85,0.14116770029068
89.9,22.9,0.149010464549065
89.9,22.95,0.155088245868683
89.9,23,0.159363865852356
89.9,23.05,0.160834759473801
89.9,23.1,0.159475162625313
89.9,23.15,0.156142026185989
89.9,23.2,0.151726931333542
89.9,23.25,0.146844461560249
89.9,23.3,0.140350118279457
89.9,23.35,0.131319537758827
89.9,23.4,0.123336181044579
89.9,23.45,0.116405479609966
89.9,23.5,0.110511116683483
89.9,23.55,0.105651579797268
89.9,23.6,0.10181301087141
89.9,23.65,0.0990042313933372
89.9,23.7,0.0972142294049263
89.9,23.75,0.0964308679103851
89.9,23.8,0.0965516716241837
89.9,23.85,0.0974347144365311
89.9,23.9,0.0989200994372368
89.9,23.95,0.100843504071236
89.9,24,0.103034280240536
89.9,24.05,0.105413444340229
89.9,24.1,0.108007900416851
89.9,24.15,0.111044488847256
89.9,24.2,0.115225784480572
89.9,24.25,0.122388079762459
89.9,24.3,0.13737727701664
89.9,24.35,0.161094173789024
89.9,24.4,0.208599328994751
89.9,24.45,0.317115038633347
89.9,24.5,0.440121650695801
89.9,24.55,0.394527077674866
89.9,24.6,0.280987679958344
89.9,24.65,0.20737436413765
89.9,24.7,0.167591631412506
89.9,24.75,0.145050823688507
89.9,24.8,0.124306216835976
89.9,24.85,0.112675383687019
89.9,24.9,0.105821713805199
89.9,24.95,0.101314403116703
89.9,25,0.0979662761092186
89.9,25.05,0.0951790511608124
89.9,25.1,0.0926413908600807
89.9,25.15,0.0902010947465897
89.9,25.2,0.0877637043595314
89.9,25.25,0.085296630859375
89.9,25.3,0.0827827900648117
89.9,25.35,0.0802215561270714
89.9,25.4,0
89.9,25.45,0
89.9,25.5,0
89.9,25.55,0
89.9,25.6,0
89.9,25.65,0
89.95,22.7,0
89.95,22.75,0
89.95,22.8,0
89.95,22.85,0.151424378156662
89.95,22.9,0.160427391529083
89.95,22.95,0.169132500886917
89.95,23,0.175572976469994
89.95,23.05,0.177381530404091
89.95,23.1,0.174644306302071
89.95,23.15,0.169412925839424
89.95,23.2,0.163209289312363
89.95,23.25,0.156781047582626
89.95,23.3,0.15049122273922
89.95,23.35,0.144528076052666
89.95,23.4,0.134867325425148
89.95,23.45,0.125892877578735
89.95,23.5,0.118524052202702
89.95,23.55,0.112645775079727
89.95,23.6,0.10819249600172
89.95,23.65,0.105149045586586
89.95,23.7,0.103497110307217
89.95,23.75,0.103173829615116
89.95,23.8,0.104068242013454
89.95,23.85,0.105959437787533
89.95,23.9,0.108622252941132
89.95,23.95,0.111803635954857
89.95,24,0.115244969725609
89.95,24.05,0.1187913864851
89.95,24.1,0.122410818934441
89.95,24.15,0.126288995146751
89.95,24.2,0.131132453680038
89.95,24.25,0.138949796557426
89.95,24.3,0.149424761533737
89.95,24.35,0.169376403093338
89.95,24.4,0.216149866580963
89.95,24.45,0.328131079673767
89.95,24.5,0.453375965356827
89.95,24.55,0.442917346954346
89.95,24.6,0.340603023767471
89.95,24.65,0.23809252679348
89.95,24.7,0.186867728829384
89.95,24.75,0.158692091703415
89.95,24.8,0.142997220158577
89.95,24.85,0.126847356557846
89.95,24.9,0.117854475975037
89.95,24.95,0.112129159271717
89.95,25,0.107948757708073
89.95,25.05,0.104497969150543
89.95,25.1,0.101373866200447
89.95,25.15,0.098381020128727
89.95,25.2,0.0954020246863365
89.95,25.25,0.0924025252461433
89.95,25.3,0.0893580988049507
89.95,25.35,0
89.95,25.4,0
89.95,25.45,0
89.95,25.5,0
89.95,25.55,0
89.95,25.6,0
89.95,25.65,0
90,22.7,0
90,22.75,0
90,22.8,0
90,22.85,0.160939916968346
90,22.9,0.172719821333885
90,22.95,0.185288906097412
90,23,0.195668309926987
90,23.05,0.197938069701195
90,23.1,0.192576453089714
90,23.15,0.184526354074478
90,23.2,0.17597134411335
90,23.25,0.167648360133171
90,23.3,0.1598279774189
90,23.35,0.152628004550934
90,23.4,0.146080911159515
90,23.45,0.137118384242058
90,23.5,0.127829879522324
90,23.55,0.120692029595375
90,23.6,0.115549355745316
90,23.65,0.11233714222908
90,23.7,0.111038111150265
90,23.75,0.111574277281761
90,23.8,0.113793551921844
90,23.85,0.117431797087193
90,23.9,0.122178442776203
90,23.95,0.12766432762146
90,24,0.133470311760902
90,24.05,0.139311328530312
90,24.1,0.144144892692566
90,24.15,0.146537363529205
90,24.2,0.149007901549339
90,24.25,0.152356207370758
90,24.3,0.158819198608398
90,24.35,0.174035236239433
90,24.4,0.209262758493423
90,24.45,0.285740286111832
90,24.5,0.390888601541519
90,24.55,0.420507788658142
90,24.6,0.361171811819077
90,24.65,0.26314389705658
90,24.7,0.204946577548981
90,24.75,0.172706499695778
90,24.8,0.154999241232872
90,24.85,0.145210012793541
90,24.9,0.134975895285606
90,24.95,0.127325683832169
90,25,0.121785059571266
90,25.05,0.117242805659771
90,25.1,0.11314645409584
90,25.15,0.109255149960518
90,25.2,0.10541270673275
90,25.25,0.101578690111637
90,25.3,0.0977228879928589
90,25.35,0
90,25.4,0
90,25.45,0
90,25.5,0
90,25.55,0
90,25.6,0
90,25.65,0
90.05,22.7,0
90.05,22.75,0
90.05,22.8,0
90.05,22.85,0.170218631625175
90.05,22.9,0.184851616621017
90.05,22.95,0.201841473579407
90.05,23,0.217888712882996
90.05,23.05,0.221295356750488
90.05,23.1,0.212674289941788
90.05,23.15,0.201219588518143
90.05,23.2,0.189865678548813
90.05,23.25,0.1793432533741
90.05,23.3,0.169791594147682
90.05,23.35,0.161200881004333
90.05,23.4,0.153546825051308
90.05,23.45,0.146829977631569
90.05,23.5,0.138751700520515
90.05,23.55,0.130043625831604
90.05,23.6,0.124128229916096
90.05,23.65,0.120874628424644
90.05,23.7,0.120255127549171
90.05,23.75,0.122225716710091
90.05,23.8,0.126694664359093
90.05,23.85,0.133412584662437
90.05,23.9,0.142084255814552
90.05,23.95,0.147136509418488
90.05,24,0.151272162795067
90.05,24.05,0.155003666877747
90.05,24.1,0.158233240246773
90.05,24.15,0.160947233438492
90.05,24.2,0.163296610116959
90.05,24.25,0.165818229317665
90.05,24.3,0.170017272233963
90.05,24.35,0.179586008191109
90.05,24.4,0.201968878507614
90.05,24.45,0.247671708464622
90.05,24.5,0.324953705072403
90.05,24.55,0.373673677444458
90.05,24.6,0.354249745607376
90.05,24.65,0.277912825345993
90.05,24.7,0.220558509230614
90.05,24.75,0.186741814017296
90.05,24.8,0.167676702141762
90.05,24.85,0.157048106193542
90.05,24.9,0.150758802890778
90.05,24.95,0.14650160074234
90.05,25,0.142701879143715
90.05,25.05,0.136126652359962
90.05,25.1,0.130248501896858
90.05,25.15,0.124742649495602
90.05,25.2,0.119391180574894
90.05,25.25,0.114142075181007
90.05,25.3,0.108956411480904
90.05,25.35,0
90.05,25.4,0
90.05,25.45,0
90.05,25.5,0
90.05,25.55,0
90.05,25.6,0
90.05,25.65,0
90.1,22.7,0
90.1,22.75,0
90.1,22.8,0
90.1,22.85,0
90.1,22.9,0.195599645376205
90.1,22.95,0.215798676013947
90.1,23,0.235947474837303
90.1,23.05,0.243013724684715
90.1,23.1,0.233783856034279
90.1,23.15,0.219105884432793
90.1,23.2,0.204705581068993
90.1,23.25,0.191773012280464
90.1,23.3,0.180327713489532
90.1,23.35,0.170233204960823
90.1,23.4,0.161373779177666
90.1,23.45,0.15370437502861
90.1,23.5,0.147286787629128
90.1,23.55,0.14103277027607
90.1,23.6,0.134199738502502
90.1,23.65,0.131038352847099
90.1,23.7,0.131546691060066
90.1,23.75,0.135839000344276
90.1,23.8,0.14373254776001
90.1,23.85,0.148996889591217
90.1,23.9,0.155062586069107
90.1,23.95,0.161321416497231
90.1,24,0.167205542325974
90.1,24.05,0.172333970665932
90.1,24.1,0.176546841859818
90.1,24.15,0.179789215326309
90.1,24.2,0.182114720344543
90.1,24.25,0.18386472761631
90.1,24.3,0.18597237765789
90.1,24.35,0.19059619307518
90.1,24.4,0.202134191989899
90.1,24.45,0.227143034338951
90.1,24.5,0.26963347196579
90.1,24.55,0.317582875490189
90.1,24.6,0.323520720005035
90.1,24.65,0.280074030160904
90.1,24.7,0.232934191823006
90.1,24.75,0.200664043426514
90.1,24.8,0.181492179632187
90.1,24.85,0.170487895607948
90.1,24.9,0.163858532905579
90.1,24.95,0.159308612346649
90.1,25,0.155638113617897
90.1,25.05,0.152305468916893
90.1,25.1,0.149019688367844
90.1,25.15,0.145665943622589
90.1,25.2,0.1404659897089
90.1,25.25,0.132570445537567
90.1,25.3,0
90.1,25.35,0
90.1,25.4,0
90.1,25.45,0
90.1,25.5,0
90.1,25.55,0
90.1,25.6,0
90.1,25.65,0
90.15,22.7,0
90.15,22.75,0
90.15,22.8,0
90.15,22.85,0
90.15,22.9,0
90.15,22.95,0.22651606798172
90.15,23,0.249371722340584
90.15,23.05,0.261386156082153
90.15,23.1,0.254525005817413
90.15,23.15,0.237613052129745
90.15,23.2,0.220314279198647
90.15,23.25,0.204870030283928
90.15,23.3,0.191405728459358
90.15,23.35,0.179701834917068
90.15,23.4,0.169551163911819
90.15,23.45,0.160856112837791
90.15,23.5,0.1536625623703
90.15,23.55,0.1481644064188
90.15,23.6,0.144635006785393
90.15,23.65,0.143091887235641
90.15,23.7,0.144287332892418
90.15,23.75,0.147851034998894
90.15,23.8,0.153940230607986
90.15,23.85,0.161959543824196
90.15,23.9,0.171126127243042
90.15,23.95,0.180585324764252
90.15,24,0.189387232065201
90.15,24.05,0.196884304285049
90.15,24.1,0.202764093875885
90.15,24.15,0.206936880946159
90.15,24.2,0.209391415119171
90.15,24.25,0.210438475012779
90.15,24.3,0.210781678557396
90.15,24.35,0.211645394563675
90.15,24.4,0.215310722589493
90.15,24.45,0.225834965705872
90.15,24.5,0.247204810380936
90.15,24.55,0.275740772485733
90.15,24.6,0.291440099477768
90.15,24.65,0.274767965078354
90.15,24.7,0.24278935790062
90.15,24.75,0.215385854244232
90.15,24.8,0.197486743330956
90.15,24.85,0.186630517244339
90.15,24.9,0.179737418889999
90.15,24.95,0.174807071685791
90.15,25,0.170684620738029
90.15,25.05,0.166862323880196
90.15,25.1,0.163055568933487
90.15,25.15,0.159142300486565
90.15,25.2,0.154996603727341
90.15,25.25,0.150617673993111
90.15,25.3,0
90.15,25.35,0
90.15,25.4,0
90.15,25.45,0
90.15,25.5,0
90.15,25.55,0
90.15,25.6,0
90.15,25.65,0
90.2,22.7,0
90.2,22.75,0
90.2,22.8,0
90.2,22.85,0
90.2,22.9,0
90.2,22.95,0.23428139090538
90.2,23,0.258244901895523
90.2,23.05,0.273732334375381
90.2,23.1,0.272061258554459
90.2,23.15,0.256163030862808
90.2,23.2,0.236608669161797
90.2,23.25,0.218605294823647
90.2,23.3,0.203019216656685
90.2,23.35,0.189606726169586
90.2,23.4,0.17807899415493
90.2,23.45,0.168279677629471
90.2,23.5,0.160236313939095
90.2,23.55,0.154177084565163
90.2,23.6,0.150457710027695
90.2,23.65,0.149454444646835
90.2,23.7,0.151610985398293
90.2,23.75,0.157420754432678
90.2,23.8,0.166897863149643
90.2,23.85,0.179342150688171
90.2,23.9,0.193822756409645
90.2,23.95,0.209140762686729
90.2,24,0.223700419068336
90.2,24.05,0.236035570502281
90.2,24.1,0.245348230004311
90.2,24.15,0.251453161239624
90.2,24.2,0.254205316305161
90.2,24.25,0.254163712263107
90.2,24.3,0.252367734909058
90.2,24.35,0.249758169054985
90.2,24.4,0.247675552964211
90.2,24.45,0.248183190822601
90.2,24.5,0.254437536001205
90.2,24.55,0.266990631818771
90.2,24.6,0.278016686439514
90.2,24.65,0.2740758061409
90.2,24.7,0.255152672529221
90.2,24.75,0.234352335333824
90.2,24.8,0.218612670898438
90.2,24.85,0.208051338791847
90.2,24.9,0.20071317255497
90.2,24.95,0.195060893893242
90.2,25,0.190111860632896
90.2,25.05,0.185439929366112
90.2,25.1,0.180756509304047
90.2,25.15,0.175952091813087
90.2,25.2,0.170838072896004
90.2,25.25,0.165421515703201
90.2,25.3,0
90.2,25.35,0
90.2,25.4,0
90.2,25.45,0
90.2,25.5,0
90.2,25.55,0
90.2,25.6,0
90.2,25.65,0
90.25,22.7,0
90.25,22.75,0
90.25,22.8,0
90.25,22.85,0
90.25,22.9,0
90.25,22.95,0.23977030813694
90.25,23,0.264270156621933
90.25,23.05,0.282423138618469
90.25,23.1,0.286328941583633
90.25,23.15,0.274076461791992
90.25,23.2,0.253336548805237
90.25,23.25,0.23297144472599
90.25,23.3,0.215197667479515
90.25,23.35,0.199972778558731
90.25,23.4,0.186971440911293
90.25,23.45,0.175978034734726
90.25,23.5,0.16700068116188
90.25,23.55,0.160314694046974
90.25,23.6,0.156436294317245
90.25,23.65,0.156023815274239
90.25,23.7,0.159894034266472
90.25,23.75,0.168962925672531
90.25,23.8,0.183631613850594
90.25,23.85,0.203409120440483
90.25,23.9,0.227729693055153
90.25,23.95,0.255385220050812
90.25,24,0.283688098192215
90.25,24.05,0.309112429618835
90.25,24.1,0.3283731341362
90.25,24.15,0.339909911155701
90.25,24.2,0.3431795835495
90.25,24.25,0.340084552764893
90.25,24.3,0.333212435245514
90.25,24.35,0.324197739362717
90.25,24.4,0.314562857151031
90.25,24.45,0.305746018886566
90.25,24.5,0.299781739711761
90.25,24.55,0.298186957836151
90.25,24.6,0.298804461956024
90.25,24.65,0.294839411973953
90.25,24.7,0.282367169857025
90.25,24.75,0.266012489795685
90.25,24.8,0.251605153083801
90.25,24.85,0.240402653813362
90.25,24.9,0.231660157442093
90.25,24.95,0.224416166543961
90.25,25,0.217790976166725
90.25,25.05,0.211492523550987
90.25,25.1,0.205192700028419
90.25,25.15,0.198826044797897
90.25,25.2,0.192047238349915
90.25,25.25,0
90.25,25.3,0
90.25,25.35,0
90.25,25.4,0
90.25,25.45,0
90.25,25.5,0
90.25,25.55,0
90.25,25.6,0
90.25,25.65,0
90.3,22.7,0
90.3,22.75,0
90.3,22.8,0
90.3,22.85,0
90.3,22.9,0
90.3,22.95,0.243498340249062
90.3,23,0.26798003911972
90.3,23.05,0.287501126527786
90.3,23.1,0.295543372631073
90.3,23.15,0.28884881734848
90.3,23.2,0.269996762275696
90.3,23.25,0.248013213276863
90.3,23.3,0.228002279996872
90.3,23.35,0.210849463939667
90.3,23.4,0.196264043450356
90.3,23.45,0.183971539139748
90.3,23.5,0.17395481467247
90.3,23.55,0.16655507683754
90.3,23.6,0.16251914203167
90.3,23.65,0.162888199090958
90.3,23.7,0.168935984373093
90.3,23.75,0.182283654808998
90.3,23.8,0.204367771744728
90.3,23.85,0.236085698008537
90.3,23.9,0.279247164726257
90.3,23.95,0.335655361413956
90.3,24,0.371202528476715
90.3,24.05,0.395510733127594
90.3,24.1,0.410941392183304
90.3,24.15,0.416881561279297
90.3,24.2,0.415897876024246
90.3,24.25,0.41123166680336
90.3,24.3,0.404709368944168
90.3,24.35,0.397080510854721
90.3,24.4,0.388961315155029
90.3,24.45,0.380768090486526
90.3,24.5,0.373111456632614
90.3,24.55,0.366601824760437
90.3,24.6,0.361221611499786
90.3,24.65,0.355765849351883
90.3,24.7,0.349061459302902
90.3,24.75,0.33062607049942
90.3,24.8,0.312793225049973
90.3,24.85,0.297363936901093
90.3,24.9,0.284335732460022
90.3,24.95,0.273097574710846
90.3,25,0.262584000825882
90.3,25.05,0.252690136432648
90.3,25.1,0.243001565337181
90.3,25.15,0.233496189117432
90.3,25.2,0.223511695861816
90.3,25.25,0
90.3,25.3,0
90.3,25.35,0
90.3,25.4,0
90.3,25.45,0
90.3,25.5,0
90.3,25.55,0
90.3,25.6,0
90.3,25.65,0
90.35,22.7,0
90.35,22.75,0
90.35,22.8,0
90.35,22.85,0
90.35,22.9,0
90.35,22.95,0.24586533010006
90.35,23,0.270089626312256
90.35,23.05,0.290461778640747
90.35,23.1,0.301687121391296
90.35,23.15,0.300546765327454
90.35,23.2,0.285943537950516
90.35,23.25,0.263514935970306
90.35,23.3,0.24147030711174
90.35,23.35,0.222307980060577
90.35,23.4,0.206010550260544
90.35,23.45,0.192293867468834
90.35,23.5,0.18110716342926
90.35,23.55,0.17285193502903
90.35,23.6,0.168533816933632
90.35,23.65,0.169614970684052
90.35,23.7,0.177871569991112
90.35,23.75,0.195850476622581
90.35,23.8,0.226835697889328
90.35,23.85,0.275415569543839
90.35,23.9,0.34966042637825
90.35,23.95,0.400232255458832
90.35,24,0.457672894001007
90.35,24.05,0.513493359088898
90.35,24.1,0.546429574489594
90.35,24.15,0.549401164054871
90.35,24.2,0.539862871170044
90.35,24.25,0.527053475379944
90.35,24.3,0.510669589042664
90.35,24.35,0.494356632232666
90.35,24.4,0.478471159934998
90.35,24.45,0.462561339139938
90.35,24.5,0.44827675819397
90.35,24.55,0.435414910316467
90.35,24.6,0.423581093549728
90.35,24.65,0.412800908088684
90.35,24.7,0.402677685022354
90.35,24.75,0.392625510692596
90.35,24.8,0.383047223091125
90.35,24.85,0.373934477567673
90.35,24.9,0.365381330251694
90.35,24.95,0.357294082641602
90.35,25,0.349087208509445
90.35,25.05,0.329987406730652
90.35,25.1,0.311399042606354
90.35,25.15,0.294116526842117
90.35,25.2,0.276652187108994
90.35,25.25,0
90.35,25.3,0
90.35,25.35,0
90.35,25.4,0
90.35,25.45,0
90.35,25.5,0
90.35,25.55,0
90.35,25.6,0
90.35,25.65,0
90.4,22.7,0
90.4,22.75,0
90.4,22.8,0
90.4,22.85,0
90.4,22.9,0
90.4,22.95,0.247156232595444
90.4,23,0.270920217037201
90.4,23.05,0.291591018438339
90.4,23.1,0.304816424846649
90.4,23.15,0.307850986719131
90.4,23.2,0.298743933439255
90.4,23.25,0.278815001249313
90.4,23.3,0.255639851093292
90.4,23.35,0.234428718686104
90.4,23.4,0.216277927160263
90.4,23.45,0.200992047786713
90.4,23.5,0.1884745657444
90.4,23.55,0.179145738482475
90.4,23.6,0.174209728837013
90.4,23.65,0.17549654841423
90.4,23.7,0.185167849063873
90.4,23.75,0.206563413143158
90.4,23.8,0.244922488927841
90.4,23.85,0.309780895709991
90.4,23.9,0.391602516174316
90.4,23.95,0.486791402101517
90.4,24,0.618980228900909
90.4,24.05,0.796731352806091
90.4,24.1,0.880608975887299
90.4,24.15,0.866196513175964
90.4,24.2,0.844678640365601
90.4,24.25,0.809070706367493
90.4,24.3,0.747579336166382
90.4,24.35,0.70225578546524
90.4,24.4,0.663820028305054
90.4,24.45,0.622248232364655
90.4,24.5,0.591447472572327
90.4,24.55,0.564235627651215
90.4,24.6,0.538132846355438
90.4,24.65,0.516579508781433
90.4,24.7,0.496815711259842
90.4,24.75,0.478409141302109
90.4,24.8,0.463008254766464
90.4,24.85,0.449120104312897
90.4,24.9,0.436317980289459
90.4,24.95,0.424023807048798
90.4,25,0.411278426647186
90.4,25.05,0.399273216724396
90.4,25.1,0.387266278266907
90.4,25.15,0.375424027442932
90.4,25.2,0.362271428108215
90.4,25.25,0
90.4,25.3,0
90.4,25.35,0
90.4,25.4,0
90.4,25.45,0
90.4,25.5,0
90.4,25.55,0
90.4,25.6,0
90.4,25.65,0
90.45,22.7,0
90.45,22.75,0
90.45,22.8,0
90.45,22.85,0
90.45,22.9,0
90.45,22.95,0
90.45,23,0.270777553319931
90.45,23.05,0.29147869348526
90.45,23.1,0.306077063083649
90.45,23.15,0.31237867474556
90.45,23.2,0.308539152145386
90.45,23.25,0.293192535638809
90.45,23.3,0.270230501890182
90.45,23.35,0.247226879000664
90.45,23.4,0.227137506008148
90.45,23.45,0.210123389959335
90.45,23.5,0.196089446544647
90.45,23.55,0.185405999422073
90.45,23.6,0.179322063922882
90.45,23.65,0.179872915148735
90.45,23.7,0.189354836940765
90.45,23.75,0.211269959807396
90.45,23.8,0.251607894897461
90.45,23.85,0.322117775678635
90.45,23.9,0.418655842542648
90.45,23.95,0.557427167892456
90.45,24,0.794656574726105
90.45,24.05,0.977538406848907
90.45,24.1,1.10855495929718
90.45,24.15,1.12018918991089
90.45,24.2,1.10367834568024
90.45,24.25,1.10866940021515
90.45,24.3,1.04273247718811
90.45,24.35,1.00964713096619
90.45,24.4,0.981094717979431
90.45,24.45,0.92786979675293
90.45,24.5,0.899697601795197
90.45,24.55,0.868073701858521
90.45,24.6,0.810920178890228
90.45,24.65,0.757551670074463
90.45,24.7,0.703174352645874
90.45,24.75,0.654366374015808
90.45,24.8,0.620907783508301
90.45,24.85,0.591736555099487
90.45,24.9,0.566851437091827
90.45,24.95,0.542089104652405
90.45,25,0.517120659351349
90.45,25.05,0.496276944875717
90.45,25.1,0.476101607084274
90.45,25.15,0.457032948732376
90.45,25.2,0.435974657535553
90.45,25.25,0
90.45,25.3,0
90.45,25.35,0
90.45,25.4,0
90.45,25.45,0
90.45,25.5,0
90.45,25.55,0
90.45,25.6,0
90.45,25.65,0
90.5,22.7,0
90.5,22.75,0
90.5,22.8,0
90.5,22.85,0
90.5,22.9,0
90.5,22.95,0
90.5,23,0
90.5,23.05,0.290300458669662
90.5,23.1,0.305702924728394
90.5,23.15,0.31422421336174
90.5,23.2,0.314372032880783
90.5,23.25,0.304328501224518
90.5,23.3,0.284358769655228
90.5,23.35,0.260672688484192
90.5,23.4,0.238649442791939
90.5,23.45,0.219745263457298
90.5,23.5,0.204000324010849
90.5,23.55,0.191673159599304
90.5,23.6,0.183861747384071
90.5,23.65,0.182554304599762
90.5,23.7,0.189934268593788
90.5,23.75,0.20890611410141
90.5,23.8,0.244443938136101
90.5,23.85,0.305420011281967
90.5,23.9,0.3823302090168
90.5,23.95,0.464358448982239
90.5,24,0.57413250207901
90.5,24.05,0.712519645690918
90.5,24.1,0.854166448116302
90.5,24.15,0.89398729801178
90.5,24.2,0.932825565338135
90.5,24.25,0.990744233131409
90.5,24.3,1.01093018054962
90.5,24.35,1.05941331386566
90.5,24.4,1.12171614170074
90.5,24.45,1.10951018333435
90.5,24.5,1.14971530437469
90.5,24.55,1.137366771698
90.5,24.6,1.07353508472443
90.5,24.65,1.06718075275421
90.5,24.7,1.01301527023315
90.5,24.75,0.957364320755005
90.5,24.8,0.932532727718353
90.5,24.85,0.898419141769409
90.5,24.9,0.874002993106842
90.5,24.95,0.829269707202911
90.5,25,0.756796777248383
90.5,25.05,0.706227421760559
90.5,25.1,0.660113334655762
90.5,25.15,0.617217838764191
90.5,25.2,0.575104117393494
90.5,25.25,0
90.5,25.3,0
90.5,25.35,0
90.5,25.4,0
90.5,25.45,0
90.5,25.5,0
90.5,25.55,0
90.5,25.6,0
90.5,25.65,0
90.55,22.7,0
90.55,22.75,0
90.55,22.8,0
90.55,22.85,0
90.55,22.9,0
90.55,22.95,0
90.55,23,0
90.55,23.05,0.28826242685318
90.55,23.1,0.304130703210831
90.55,23.15,0.314259976148605
90.55,23.2,0.317560791969299
90.55,23.25,0.312440395355225
90.55,23.3,0.29722461104393
90.55,23.35,0.274373859167099
90.55,23.4,0.250762462615967
90.55,23.45,0.229895129799843
90.55,23.5,0.21225742995739
90.55,23.55,0.198047995567322
90.55,23.6,0.188075691461563
90.55,23.65,0.18400639295578
90.55,23.7,0.187762275338173
90.55,23.75,0.201288655400276
90.55,23.8,0.227536529302597
90.55,23.85,0.270760923624039
90.55,23.9,0.338969886302948
90.55,23.95,0.389102101325989
90.55,24,0.440586090087891
90.55,24.05,0.493991434574127
90.55,24.1,0.543641567230225
90.55,24.15,0.583592414855957
90.55,24.2,0.623120963573456
90.55,24.25,0.66962343454361
90.55,24.3,0.710965633392334
90.55,24.35,0.766419887542725
90.55,24.4,0.840672671794891
90.55,24.45,0.86829137802124
90.55,24.5,0.906383335590363
90.55,24.55,0.947079062461853
90.55,24.6,0.968432128429413
90.55,24.65,1.02564835548401
90.55,24.7,1.05932438373566
90.55,24.75,1.05705082416534
90.55,24.8,1.100949883461
90.55,24.85,1.14909374713898
90.55,24.9,1.16559100151062
90.55,24.95,1.09765136241913
90.55,25,1.04694557189941
90.55,25.05,1.01235461235046
90.55,25.1,0.979455769062042
90.55,25.15,0.92366886138916
90.55,25.2,0.887168228626251
90.55,25.25,0
90.55,25.3,0
90.55,25.35,0
90.55,25.4,0
90.55,25.45,0
90.55,25.5,0
90.55,25.55,0
90.55,25.6,0
90.55,25.65,0
90.6,22.7,0
90.6,22.75,0
90.6,22.8,0
90.6,22.85,0
90.6,22.9,0
90.6,22.95,0
90.6,23,0
90.6,23.05,0
90.6,23.1,0
90.6,23.15,0.31266787648201
90.6,23.2,0.318215548992157
90.6,23.25,0.316845566034317
90.6,23.3,0.306677997112274
90.6,23.35,0.287197321653366
90.6,23.4,0.263317972421646
90.6,23.45,0.240562185645103
90.6,23.5,0.220874831080437
90.6,23.55,0.204621091485023
90.6,23.6,0.192303940653801
90.6,23.65,0.18509615957737
90.6,23.7,0.184523046016693
90.6,23.75,0.191827401518822
90.6,23.8,0.208222597837448
90.6,23.85,0.23491795361042
90.6,23.9,0.273645848035812
90.6,23.95,0.326286822557449
90.6,24,0.366659194231033
90.6,24.05,0.393850207328796
90.6,24.1,0.418590664863586
90.6,24.15,0.440194457769394
90.6,24.2,0.460104644298553
90.6,24.25,0.479695409536362
90.6,24.3,0.498911499977112
90.6,24.35,0.520163536071777
90.6,24.4,0.543702483177185
90.6,24.45,0.567736864089966
90.6,24.5,0.597257554531097
90.6,24.55,0.629131615161896
90.6,24.6,0.667530417442322
90.6,24.65,0.714722812175751
90.6,24.7,0.76481693983078
90.6,24.75,0.81562340259552
90.6,24.8,0.876771569252014
90.6,24.85,0.939006209373474
90.6,24.9,0.968546271324158
90.6,24.95,0.967265903949738
90.6,25,0.984441220760345
90.6,25.05,1.04865026473999
90.6,25.1,1.11358654499054
90.6,25.15,1.09960973262787
90.6,25.2,1.13061940670013
90.6,25.25,0
90.6,25.3,0
90.6,25.35,0
90.6,25.4,0
90.6,25.45,0
90.6,25.5,0
90.6,25.55,0
90.6,25.6,0
90.6,25.65,0
90.65,22.7,0
90.65,22.75,0
90.65,22.8,0
90.65,22.85,0
90.65,22.9,0
90.65,22.95,0
90.65,23,0
90.65,23.05,0
90.65,23.1,0
90.65,23.15,0
90.65,23.2,0.316991180181503
90.65,23.25,0
90.65,23.3,0
90.65,23.35,0
90.65,23.4,0
90.65,23.45,0.251545548439026
90.65,23.5,0.229776531457901
90.65,23.55,0.21138659119606
90.65,23.6,0.196760311722755
90.65,23.65,0.186566159129143
90.65,23.7,0.181822091341019
90.65,23.75,0.183409035205841
90.65,23.8,0.191700682044029
90.65,23.85,0.206625878810883
90.65,23.9,0.227910906076431
90.65,23.95,0.254781424999237
90.65,24,0.285532921552658
90.65,24.05,0.319080680608749
90.65,24.1,0.351045519113541
90.65,24.15,0.364825636148453
90.65,24.2,0.377415537834167
90.65,24.25,0.38917750120163
90.65,24.3,0.400666505098343
90.65,24.35,0.41232705116272
90.65,24.4,0.424377232789993
90.65,24.45,0.436967462301254
90.65,24.5,0.450545281171799
90.65,24.55,0.465259671211243
90.65,24.6,0.482725471258163
90.65,24.65,0.500167191028595
90.65,24.7,0.520036399364471
90.65,24.75,0.542810678482056
90.65,24.8,0.576652586460114
90.65,24.85,0.615336298942566
90.65,24.9,0.641611754894257
90.65,24.95,0.661845207214355
90.65,25,0.692584872245789
90.65,25.05,0.748273015022278
90.65,25.1,0.812300324440002
90.65,25.15,0.847994804382324
90.65,25.2,0.870812237262726
90.65,25.25,0
90.65,25.3,0
90.65,25.35,0
90.65,25.4,0
90.65,25.45,0
90.65,25.5,0
90.65,25.55,0
90.65,25.6,0
90.65,25.65,0
90.7,22.7,0
90.7,22.75,0
90.7,22.8,0
90.7,22.85,0
90.7,22.9,0
90.7,22.95,0
90.7,23,0
90.7,23.05,0
90.7,23.1,0
90.7,23.15,0
90.7,23.2,0
90.7,23.25,0
90.7,23.3,0
90.7,23.35,0
90.7,23.4,0
90.7,23.45,0
90.7,23.5,0.238726064562798
90.7,23.55,0.218191668391228
90.7,23.6,0.201427176594734
90.7,23.65,0.18868850171566
90.7,23.7,0.180497050285339
90.7,23.75,0.177411004900932
90.7,23.8,0.179633021354675
90.7,23.85,0.186799749732018
90.7,23.9,0.198206916451454
90.7,23.95,0.212776362895966
90.7,24,0.228982135653496
90.7,24.05,0.245898842811584
90.7,24.1,0.262924820184708
90.7,24.15,0.279878258705139
90.7,24.2,0.296770095825195
90.7,24.25,0.313899278640747
90.7,24.3,0.331744998693466
90.7,24.35,0.349451094865799
90.7,24.4,0.35723140835762
90.7,24.45,0.365226477384567
90.7,24.5,0.37358495593071
90.7,24.55,0.38250470161438
90.7,24.6,0.392336040735245
90.7,24.65,0.40212744474411
90.7,24.7,0.413277745246887
90.7,24.75,0.425963580608368
90.7,24.8,0.441260665655136
90.7,24.85,0.456153810024261
90.7,24.9,0.468516409397125
90.7,24.95,0.480299353599548
90.7,25,0.493809103965759
90.7,25.05,0.511059105396271
90.7,25.1,0.528015673160553
90.7,25.15,0.541330993175507
90.7,25.2,0.549820482730865
90.7,25.25,0
90.7,25.3,0
90.7,25.35,0
90.7,25.4,0
90.7,25.45,0
90.7,25.5,0
90.7,25.55,0
90.7,25.6,0
90.7,25.65,0
90.75,22.7,0
90.75,22.75,0
90.75,22.8,0
90.75,22.85,0
90.75,22.9,0
90.75,22.95,0
90.75,23,0
90.75,23.05,0
90.75,23.1,0
90.75,23.15,0
90.75,23.2,0
90.75,23.25,0
90.75,23.3,0
90.75,23.35,0
90.75,23.4,0
90.75,23.45,0
90.75,23.5,0.247109591960907
90.75,23.55,0
90.75,23.6,0
90.75,23.65,0
90.75,23.7,0.180564343929291
90.75,23.75,0.17399238049984
90.75,23.8,0.171780094504356
90.75,23.85,0.173673734068871
90.75,23.9,0.17902983725071
90.75,23.95,0.186924368143082
90.75,24,0.196192219853401
90.75,24.05,0.206018194556236
90.75,24.1,0.215944215655327
90.75,24.15,0.225624606013298
90.75,24.2,0.235021844506264
90.75,24.25,0.244193881750107
90.75,24.3,0.253266334533691
90.75,24.35,0.262545496225357
90.75,24.4,0.272140145301819
90.75,24.45,0.282401114702225
90.75,24.5,0.293654054403305
90.75,24.55,0.30623871088028
90.75,24.6,0.320401281118393
90.75,24.65,0.335880875587463
90.75,24.7,0.350883841514587
90.75,24.75,0.358921855688095
90.75,24.8,0.367537975311279
90.75,24.85,0.375720798969269
90.75,24.9,0.383441984653473
90.75,24.95,0.391085416078568
90.75,25,0.398632884025574
90.75,25.05,0.406144827604294
90.75,25.1,0.412420928478241
90.75,25.15,0.416602700948715
90.75,25.2,0.416232466697693
90.75,25.25,0
90.75,25.3,0
90.75,25.35,0
90.75,25.4,0
90.75,25.45,0
90.75,25.5,0
90.75,25.55,0
90.75,25.6,0
90.75,25.65,0
90.8,22.7,0
90.8,22.75,0
90.8,22.8,0
90.8,22.85,0
90.8,22.9,0
90.8,22.95,0
90.8,23,0
90.8,23.05,0
90.8,23.1,0
90.8,23.15,0
90.8,23.2,0
90.8,23.25,0
90.8,23.3,0
90.8,23.35,0
90.8,23.4,0
90.8,23.45,0
90.8,23.5,0
90.8,23.55,0
90.8,23.6,0
90.8,23.65,0
90.8,23.7,0.18174059689045
90.8,23.75,0.172645941376686
90.8,23.8,0.167236745357513
90.8,23.85,0.165368378162384
90.8,23.9,0.166620150208473
90.8,23.95,0.170263111591339
90.8,24,0.175428971648216
90.8,24.05,0.181407898664474
90.8,24.1,0.187710464000702
90.8,24.15,0.193988010287285
90.8,24.2,0.2000902146101
90.8,24.25,0.205981835722923
90.8,24.3,0.211678266525269
90.8,24.35,0.21731261909008
90.8,24.4,0.22298201918602
90.8,24.45,0.228798225522041
90.8,24.5,0.234998479485512
90.8,24.55,0.241670474410057
90.8,24.6,0.248875573277473
90.8,24.65,0.256481528282166
90.8,24.7,0.265123903751373
90.8,24.75,0.27463698387146
90.8,24.8,0.285018384456635
90.8,24.85,0.29554495215416
90.8,24.9,0.306559920310974
90.8,24.95,0.318129003047943
90.8,25,0.329164296388626
90.8,25.05,0.338826388120651
90.8,25.1,0.344861596822739
90.8,25.15,0.345817089080811
90.8,25.2,0.339429318904877
90.8,25.25,0
90.8,25.3,0
90.8,25.35,0
90.8,25.4,0
90.8,25.45,0
90.8,25.5,0
90.8,25.55,0
90.8,25.6,0
90.8,25.65,0
90.85,22.7,0
90.85,22.75,0
90.85,22.8,0
90.85,22.85,0
90.85,22.9,0
90.85,22.95,0
90.85,23,0
90.85,23.05,0
90.85,23.1,0
90.85,23.15,0
90.85,23.2,0
90.85,23.25,0
90.85,23.3,0
90.85,23.35,0
90.85,23.4,0
90.85,23.45,0
90.85,23.5,0
90.85,23.55,0
90.85,23.6,0
90.85,23.65,0
90.85,23.7,0
90.85,23.75,0
90.85,23.8,0
90.85,23.85,0.16044969856739
90.85,23.9,0.158645406365395
90.85,23.95,0.159206166863441
90.85,24,0.161485657095909
90.85,24.05,0.164870321750641
90.85,24.1,0.168872252106667
90.85,24.15,0.173113808035851
90.85,24.2,0.177384957671165
90.85,24.25,0.18155300617218
90.85,24.3,0.185588181018829
90.85,24.35,0.18952351808548
90.85,24.4,0.193413779139519
90.85,24.45,0.197311073541641
90.85,24.5,0.201341271400452
90.85,24.55,0.20555391907692
90.85,24.6,0.209964603185654
90.85,24.65,0.214498698711395
90.85,24.7,0.21944785118103
90.85,24.75,0.224682703614235
90.85,24.8,0.230198845267296
90.85,24.85,0.235740393400192
90.85,24.9,0.241496250033379
90.85,24.95,0.247390925884247
90.85,25,0.252783328294754
90.85,25.05,0.256985515356064
90.85,25.1,0.258687227964401
90.85,25.15,0.257371217012405
90.85,25.2,0.252576529979706
90.85,25.25,0
90.85,25.3,0
90.85,25.35,0
90.85,25.4,0
90.85,25.45,0
90.85,25.5,0
90.85,25.55,0
90.85,25.6,0
90.85,25.65,0
90.9,22.7,0
90.9,22.75,0
90.9,22.8,0
90.9,22.85,0
90.9,22.9,0
90.9,22.95,0
90.9,23,0
90.9,23.05,0
90.9,23.1,0
90.9,23.15,0
90.9,23.2,0
90.9,23.25,0
90.9,23.3,0
90.9,23.35,0
90.9,23.4,0
90.9,23.45,0
90.9,23.5,0
90.9,23.55,0
90.9,23.6,0
90.9,23.65,0
90.9,23.7,0
90.9,23.75,0
90.9,23.8,0
90.9,23.85,0.158158838748932
90.9,23.9,0.153801023960114
90.9,23.95,0.151862874627113
90.9,24,0.151805996894836
90.9,24.05,0.153129190206528
90.9,24.1,0.155366092920303
90.9,24.15,0.158131688833237
90.9,24.2,0.161153793334961
90.9,24.25,0.164246007800102
90.9,24.3,0.167312294244766
90.9,24.35,0.170328721404076
90.9,24.4,0.173292875289917
90.9,24.45,0.17621998488903
90.9,24.5,0.179176777601242
90.9,24.55,0.182174026966095
90.9,24.6,0.18522609770298
90.9,24.65,0.188307151198387
90.9,24.7,0.191532999277115
90.9,24.75,0.194848105311394
90.9,24.8,0.198247581720352
90.9,24.85,0.201627105474472
90.9,24.9,0.205080851912498
90.9,24.95,0.208548069000244
90.9,25,0.211610391736031
90.9,25.05,0.213737890124321
90.9,25.1,0.214167714118958
90.9,25.15,0.212489545345306
90.9,25.2,0.208659902215004
90.9,25.25,0
90.9,25.3,0
90.9,25.35,0
90.9,25.4,0
90.9,25.45,0
90.9,25.5,0
90.9,25.55,0
90.9,25.6,0
90.9,25.65,0
90.95,22.7,0
90.95,22.75,0
90.95,22.8,0
90.95,22.85,0
90.95,22.9,0
90.95,22.95,0
90.95,23,0
90.95,23.05,0
90.95,23.1,0
90.95,23.15,0
90.95,23.2,0
90.95,23.25,0
90.95,23.3,0
90.95,23.35,0
90.95,23.4,0
90.95,23.45,0
90.95,23.5,0
90.95,23.55,0
90.95,23.6,0
90.95,23.65,0
90.95,23.7,0
90.95,23.75,0
90.95,23.8,0
90.95,23.85,0.158524692058563
90.95,23.9,0.151799723505974
90.95,23.95,0.147464841604233
90.95,24,0.145241558551788
90.95,24.05,0.144689440727234
90.95,24.1,0.14535453915596
90.95,24.15,0.146850407123566
90.95,24.2,0.148870155215263
90.95,24.25,0.151181221008301
90.95,24.3,0.153624057769775
90.95,24.35,0.156122878193855
90.95,24.4,0.15862375497818
90.95,24.45,0.161090478301048
90.95,24.5,0.163525089621544
90.95,24.55,0.16592039167881
90.95,24.6,0.168251127004623
90.95,24.65,0.170512273907661
90.95,24.7,0.172773584723473
90.95,24.75,0.174989774823189
90.95,24.8,0.17718480527401
90.95,24.85,0.179316699504852
90.95,24.9,0.181446939706802
90.95,24.95,0.183505728840828
90.95,25,0.185234427452087
90.95,25.05,0.186276897788048
90.95,25.1,0.186154618859291
90.95,25.15,0.184588551521301
90.95,25.2,0.181512430310249
90.95,25.25,0
90.95,25.3,0
90.95,25.35,0
90.95,25.4,0
90.95,25.45,0
90.95,25.5,0
90.95,25.55,0
90.95,25.6,0
90.95,25.65,0
91,22.7,0
91,22.75,0
91,22.8,0
91,22.85,0
91,22.9,0
91,22.95,0
91,23,0
91,23.05,0
91,23.1,0
91,23.15,0
91,23.2,0
91,23.25,0
91,23.3,0
91,23.35,0
91,23.4,0
91,23.45,0
91,23.5,0
91,23.55,0
91,23.6,0
91,23.65,0
91,23.7,0
91,23.75,0
91,23.8,0
91,23.85,0
91,23.9,0
91,23.95,0.146238818764687
91,24,0.139674797654152
91,24.05,0.134482085704803
91,24.1,0.132571056485176
91,24.15,0.133012309670448
91,24.2,0.135195419192314
91,24.25,0.138708040118217
91,24.3,0.143282890319824
91,24.35,0.145726650953293
91,24.4,0.148238435387611
91,24.45,0.150755226612091
91,24.5,0.153185173869133
91,24.55,0.15543957054615
91,24.6,0.157427176833153
91,24.65,0.159166619181633
91,24.7,0.160679638385773
91,24.75,0.161995097994804
91,24.8,0.163168892264366
91,24.85,0.164210513234138
91,24.9,0.16517648100853
91,24.95,0.166053041815758
91,25,0.16668227314949
91,25.05,0.166859343647957
91,25.1,0.166291415691376
91,25.15,0.164772108197212
91,25.2,0
91,25.25,0
91,25.3,0
91,25.35,0
91,25.4,0
91,25.45,0
91,25.5,0
91,25.55,0
91,25.6,0
91,25.65,0
91.05,22.7,0
91.05,22.75,0
91.05,22.8,0
91.05,22.85,0
91.05,22.9,0
91.05,22.95,0
91.05,23,0
91.05,23.05,0
91.05,23.1,0
91.05,23.15,0
91.05,23.2,0
91.05,23.25,0
91.05,23.3,0
91.05,23.35,0
91.05,23.4,0
91.05,23.45,0
91.05,23.5,0
91.05,23.55,0
91.05,23.6,0
91.05,23.65,0
91.05,23.7,0
91.05,23.75,0
91.05,23.8,0
91.05,23.85,0
91.05,23.9,0
91.05,23.95,0
91.05,24,0.139840260148048
91.05,24.05,0.130594313144684
91.05,24.1,0.12561859190464
91.05,24.15,0.123742558062077
91.05,24.2,0.124132953584194
91.05,24.25,0.12631930410862
91.05,24.3,0.130129963159561
91.05,24.35,0.135435789823532
91.05,24.4,0.142027392983437
91.05,24.45,0.146270260214806
91.05,24.5,0.14949432015419
91.05,24.55,0.152310773730278
91.05,24.6,0.154393807053566
91.05,24.65,0.155805945396423
91.05,24.7,0.156576827168465
91.05,24.75,0.156799778342247
91.05,24.8,0.156622245907784
91.05,24.85,0.15610933303833
91.05,24.9,0.155411303043365
91.05,24.95,0
91.05,25,0
91.05,25.05,0
91.05,25.1,0
91.05,25.15,0
91.05,25.2,0
91.05,25.25,0
91.05,25.3,0
91.05,25.35,0
91.05,25.4,0
91.05,25.45,0
91.05,25.5,0
91.05,25.55,0
91.05,25.6,0
91.05,25.65,0
91.1,22.7,0
91.1,22.75,0
91.1,22.8,0
91.1,22.85,0
91.1,22.9,0
91.1,22.95,0
91.1,23,0
91.1,23.05,0
91.1,23.1,0
91.1,23.15,0
91.1,23.2,0
91.1,23.25,0
91.1,23.3,0
91.1,23.35,0
91.1,23.4,0
91.1,23.45,0
91.1,23.5,0
91.1,23.55,0
91.1,23.6,0
91.1,23.65,0
91.1,23.7,0
91.1,23.75,0
91.1,23.8,0
91.1,23.85,0
91.1,23.9,0
91.1,23.95,0
91.1,24,0
91.1,24.05,0.134237363934517
91.1,24.1,0.125796243548393
91.1,24.15,0.121707320213318
91.1,24.2,0.120957612991333
91.1,24.25,0.122928790748119
91.1,24.3,0.127555683255196
91.1,24.35,0.134860247373581
91.1,24.4,0.144368946552277
91.1,24.45,0.150234535336494
91.1,24.5,0.15568782389164
91.1,24.55,0.160002201795578
91.1,24.6,0.162832140922546
91.1,24.65,0.164088234305382
91.1,24.7,0.164072141051292
91.1,24.75,0.1629409044981
91.1,24.8,0.160823836922646
91.1,24.85,0.157866522669792
91.1,24.9,0.154348090291023
91.1,24.95,0
91.1,25,0
91.1,25.05,0
91.1,25.1,0
91.1,25.15,0
91.1,25.2,0
91.1,25.25,0
91.1,25.3,0
91.1,25.35,0
91.1,25.4,0
91.1,25.45,0
91.1,25.5,0
91.1,25.55,0
91.1,25.6,0
91.1,25.65,0
91.15,22.7,0
91.15,22.75,0
91.15,22.8,0
91.15,22.85,0
91.15,22.9,0
91.15,22.95,0
91.15,23,0
91.15,23.05,0
91.15,23.1,0
91.15,23.15,0
91.15,23.2,0
91.15,23.25,0
91.15,23.3,0
91.15,23.35,0
91.15,23.4,0
91.15,23.45,0
91.15,23.5,0
91.15,23.55,0
91.15,23.6,0
91.15,23.65,0
91.15,23.7,0
91.15,23.75,0
91.15,23.8,0
91.15,23.85,0
91.15,23.9,0
91.15,23.95,0
91.15,24,0
91.15,24.05,0
91.15,24.1,0
91.15,24.15,0
91.15,24.2,0.126112416386604
91.15,24.25,0.128721728920937
91.15,24.3,0.135628685355186
91.15,24.35,0.146081775426865
91.15,24.4,0.155207231640816
91.15,24.45,0.165709346532822
91.15,24.5,0.174631699919701
91.15,24.55,0.181472405791283
91.15,24.6,0.185790881514549
91.15,24.65,0.186898678541183
91.15,24.7,0.186476200819016
91.15,24.75,0.183721467852592
91.15,24.8,0.179471284151077
91.15,24.85,0.173424571752548
91.15,24.9,0
91.15,24.95,0
91.15,25,0
91.15,25.05,0
91.15,25.1,0
91.15,25.15,0
91.15,25.2,0
91.15,25.25,0
91.15,25.3,0
91.15,25.35,0
91.15,25.4,0
91.15,25.45,0
91.15,25.5,0
91.15,25.55,0
91.15,25.6,0
91.15,25.65,0
91.2,22.7,0
91.2,22.75,0
91.2,22.8,0
91.2,22.85,0
91.2,22.9,0
91.2,22.95,0
91.2,23,0
91.2,23.05,0
91.2,23.1,0
91.2,23.15,0
91.2,23.2,0
91.2,23.25,0
91.2,23.3,0
91.2,23.35,0
91.2,23.4,0
91.2,23.45,0
91.2,23.5,0
91.2,23.55,0
91.2,23.6,0
91.2,23.65,0
91.2,23.7,0
91.2,23.75,0
91.2,23.8,0
91.2,23.85,0
91.2,23.9,0
91.2,23.95,0
91.2,24,0
91.2,24.05,0
91.2,24.1,0
91.2,24.15,0
91.2,24.2,0.144552782177925
91.2,24.25,0.146411627531052
91.2,24.3,0.152262642979622
91.2,24.35,0.162103578448296
91.2,24.4,0.17629936337471
91.2,24.45,0.192347422242165
91.2,24.5,0.207027971744537
91.2,24.55,0.218270480632782
91.2,24.6,0.224414348602295
91.2,24.65,0.226607903838158
91.2,24.7,0.225450858473778
91.2,24.75,0.221828952431679
91.2,24.8,0.215545445680618
91.2,24.85,0
91.2,24.9,0
91.2,24.95,0
91.2,25,0
91.2,25.05,0
91.2,25.1,0
