88.3,21.5,0
88.3,21.6,0
88.3,21.7,0
88.3,21.8,0
88.3,21.9,0
88.3,22,0
88.3,22.1,0
88.3,22.2,0
88.3,22.3,0
88.3,22.4,0
88.3,22.5,0
88.3,22.6,0
88.3,22.7,0
88.3,22.8,0
88.3,22.9,0
88.3,23,0
88.3,23.1,0
88.3,23.2,0
88.3,23.3,0
88.3,23.4,0
88.3,23.5,0
88.3,23.6,0
88.3,23.7,0
88.3,23.8,0
88.3,23.9,0
88.3,24,0
88.3,24.1,0
88.3,24.2,0
88.3,24.3,0
88.3,24.4,0.0395355671644211
88.3,24.5,0.0390582010149956
88.3,24.6,0.0385456494987011
88.3,24.7,0.0379996858537197
88.3,24.8,0.0374224781990051
88.3,24.9,0.0368163734674454
88.3,25,0.0361841805279255
88.3,25.1,0.0355290398001671
88.3,25.2,0
88.3,25.3,0
88.3,25.4,0
88.3,25.5,0
88.3,25.6,0
88.3,25.7,0.031280480325222
88.3,25.8,0.0305441971868277
88.3,25.9,0.0298091918230057
88.3,26,0.0290789641439915
88.3,26.1,0.0283566005527973
88.3,26.2,0.0276450924575329
88.3,26.3,0.0269470624625683
88.3,26.4,0.0262646190822124
88.3,26.5,0.0255998279899359
88.3,26.6,0.0249542631208897
88.3,26.7,0
88.3,26.8,0
88.4,20.7,0
88.4,20.8,0
88.4,20.9,0
88.4,21,0
88.4,21.1,0
88.4,21.2,0
88.4,21.3,0
88.4,21.4,0
88.4,21.5,0
88.4,21.6,0
88.4,21.7,0
88.4,21.8,0
88.4,21.9,0
88.4,22,0
88.4,22.1,0
88.4,22.2,0
88.4,22.3,0
88.4,22.4,0
88.4,22.5,0
88.4,22.6,0
88.4,22.7,0
88.4,22.8,0
88.4,22.9,0
88.4,23,0
88.4,23.1,0
88.4,23.2,0
88.4,23.3,0
88.4,23.4,0
88.4,23.5,0
88.4,23.6,0
88.4,23.7,0
88.4,23.8,0
88.4,23.9,0
88.4,24,0
88.4,24.1,0
88.4,24.2,0
88.4,24.3,0.0420527867972851
88.4,24.4,0.0415618568658829
88.4,24.5,0.0410309471189976
88.4,24.6,0.0404616259038448
88.4,24.7,0.039855532348156
88.4,24.8,0.0392149165272713
88.4,24.9,0.0385423824191093
88.4,25,0.037841159850359
88.4,25.1,0.0371148958802223
88.4,25.2,0.0363673232495785
88.4,25.3,0
88.4,25.4,0
88.4,25.5,0
88.4,25.6,0.0332317017018795
88.4,25.7,0.0324239358305931
88.4,25.8,0.0316150821745396
88.4,25.9,0.0308093540370464
88.4,26,0.0300105717033148
88.4,26.1,0.0292222425341606
88.4,26.2,0.0284476093947887
88.4,26.3,0.0276894960552454
88.4,26.4,0.0269503779709339
88.4,26.5,0.0262321382761002
88.4,26.6,0.0255364272743464
88.4,26.7,0
88.4,26.8,0
88.5,20.7,0
88.5,20.8,0
88.5,20.9,0
88.5,21,0
88.5,21.1,0
88.5,21.2,0
88.5,21.3,0
88.5,21.4,0
88.5,21.5,0
88.5,21.6,0
88.5,21.7,0
88.5,21.8,0
88.5,21.9,0
88.5,22,0
88.5,22.1,0
88.5,22.2,0
88.5,22.3,0
88.5,22.4,0
88.5,22.5,0
88.5,22.6,0
88.5,22.7,0
88.5,22.8,0
88.5,22.9,0
88.5,23,0
88.5,23.1,0
88.5,23.2,0
88.5,23.3,0
88.5,23.4,0
88.5,23.5,0
88.5,23.6,0
88.5,23.7,0.0466092340648174
88.5,23.8,0.0463981330394745
88.5,23.9,0.0461142286658287
88.5,24,0
88.5,24.1,0
88.5,24.2,0
88.5,24.3,0.0443912483751774
88.5,24.4,0.0438370406627655
88.5,24.5,0.0432445257902145
88.5,24.6,0.0426094941794872
88.5,24.7,0.041933324187994
88.5,24.8,0.0412183701992035
88.5,24.9,0.0404675751924515
88.5,25,0.0396847687661648
88.5,25.1,0.0388744585216045
88.5,25.2,0.038041066378355
88.5,25.3,0
88.5,25.4,0
88.5,25.5,0.0354471430182457
88.5,25.6,0.0345577374100685
88.5,25.7,0.0336643792688847
88.5,25.8,0.0327719040215015
88.5,25.9,0.0318849869072437
88.5,26,0.0310081075876951
88.5,26.1,0.0301451738923788
88.5,26.2,0.0292996317148209
88.5,26.3,0.02847452275455
88.5,26.4,0.0276723802089691
88.5,26.5,0.0268952790647745
88.5,26.6,0.0261446870863438
88.5,26.7,0
88.5,26.8,0
88.6,20.7,0
88.6,20.8,0
88.6,20.9,0
88.6,21,0
88.6,21.1,0
88.6,21.2,0
88.6,21.3,0
88.6,21.4,0
88.6,21.5,0
88.6,21.6,0
88.6,21.7,0
88.6,21.8,0
88.6,21.9,0
88.6,22,0
88.6,22.1,0
88.6,22.2,0
88.6,22.3,0
88.6,22.4,0
88.6,22.5,0
88.6,22.6,0
88.6,22.7,0
88.6,22.8,0
88.6,22.9,0
88.6,23,0
88.6,23.1,0
88.6,23.2,0
88.6,23.3,0
88.6,23.4,0
88.6,23.5,0.0498066991567612
88.6,23.6,0.049746248871088
88.6,23.7,0.049585372209549
88.6,23.8,0.0493339076638222
88.6,23.9,0.0490021556615829
88.6,24,0
88.6,24.1,0
88.6,24.2,0.047615684568882
88.6,24.3,0.0470459498465061
88.6,24.4,0.0464283786714077
88.6,24.5,0.0457627959549427
88.6,24.6,0.0450492165982723
88.6,24.7,0.0442900471389294
88.6,24.8,0.0434862039983273
88.6,24.9,0.0426411889493465
88.6,25,0.0417598374187946
88.6,25.1,0.04084787145257
88.6,25.2,0.0399108603596687
88.6,25.3,0.0389535538852215
88.6,25.4,0
88.6,25.5,0.0370042622089386
88.6,25.6,0.0360117405653
88.6,25.7,0.0350173525512218
88.6,25.8,0.0340269580483437
88.6,25.9,0.0330458842217922
88.6,26,0.03207902982831
88.6,26.1,0.0311308745294809
88.6,26.2,0.0302050653845072
88.6,26.3,0.0293048247694969
88.6,26.4,0.0284325685352087
88.6,26.5,0.0275903344154358
88.6,26.6,0
88.6,26.7,0
88.6,26.8,0
88.7,20.7,0
88.7,20.8,0
88.7,20.9,0
88.7,21,0
88.7,21.1,0
88.7,21.2,0
88.7,21.3,0
88.7,21.4,0
88.7,21.5,0
88.7,21.6,0
88.7,21.7,0
88.7,21.8,0
88.7,21.9,0
88.7,22,0
88.7,22.1,0
88.7,22.2,0
88.7,22.3,0
88.7,22.4,0
88.7,22.5,0
88.7,22.6,0
88.7,22.7,0
88.7,22.8,0
88.7,22.9,0
88.7,23,0
88.7,23.1,0
88.7,23.2,0
88.7,23.3,0.0530852302908897
88.7,23.4,0.0532641932368279
88.7,23.5,0.0533082745969296
88.7,23.6,0.0532236658036709
88.7,23.7,0.0530247688293457
88.7,23.8,0.0527251027524471
88.7,23.9,0.0523370206356049
88.7,24,0.0518733412027359
88.7,24.1,0.0513434335589409
88.7,24.2,0.0507552921772003
88.7,24.3,0.050113633275032
88.7,24.4,0.0494195446372032
88.7,24.5,0.0486707873642445
88.7,24.6,0.0478661730885506
88.7,24.7,0.0470066145062447
88.7,24.8,0.0460947714745998
88.7,24.9,0.0451336354017258
88.7,25,0.044130265712738
88.7,25.1,0.0430923290550709
88.7,25.2,0.0420272499322891
88.7,25.3,0.0409410186111927
88.7,25.4,0.0398394949734211
88.7,25.5,0.0387276969850063
88.7,25.6,0.0376196391880512
88.7,25.7,0.0365038812160492
88.7,25.8,0.0353967361152172
88.7,25.9,0.0343045070767403
88.7,26,0.0332327969372272
88.7,26.1,0.0321861729025841
88.7,26.2,0.0311686638742685
88.7,26.3,0.0301834233105183
88.7,26.4,0.0292327757924795
88.7,26.5,0
88.7,26.6,0
88.7,26.7,0
88.7,26.8,0
88.8,20.7,0
88.8,20.8,0
88.8,20.9,0
88.8,21,0
88.8,21.1,0
88.8,21.2,0
88.8,21.3,0
88.8,21.4,0
88.8,21.5,0
88.8,21.6,0
88.8,21.7,0
88.8,21.8,0
88.8,21.9,0
88.8,22,0
88.8,22.1,0
88.8,22.2,0
88.8,22.3,0
88.8,22.4,0
88.8,22.5,0
88.8,22.6,0
88.8,22.7,0
88.8,22.8,0
88.8,22.9,0
88.8,23,0
88.8,23.1,0
88.8,23.2,0.0561393536627293
88.8,23.3,0.0563811622560024
88.8,23.4,0.0565039291977882
88.8,23.5,0.0565197356045246
88.8,23.6,0.0564350411295891
88.8,23.7,0.056274026632309
88.8,23.8,0.056049145758152
88.8,23.9,0.0557624101638794
88.8,24,0.055422380566597
88.8,24.1,0.0550353340804577
88.8,24.2,0.0544540248811245
88.8,24.3,0.0537316985428333
88.8,24.4,0.0529503412544727
88.8,24.5,0.0521041452884674
88.8,24.6,0.0511895380914211
88.8,24.7,0.0502055436372757
88.8,24.8,0.049155730754137
88.8,24.9,0.0480496510863304
88.8,25,0.0468903854489326
88.8,25.1,0.0456914827227592
88.8,25.2,0.0444632358849049
88.8,25.3,0.0432136431336403
88.8,25.4,0.041950348764658
88.8,25.5,0.0406797267496586
88.8,25.6,0.0394175425171852
88.8,25.7,0.0381527431309223
88.8,25.8,0.0369037017226219
88.8,25.9,0.0356778874993324
88.8,26,0.0344815440475941
88.8,26.1,0.0333197638392448
88.8,26.2,0.0321962721645832
88.8,26.3,0.0311140175908804
88.8,26.4,0.0300749205052853
88.8,26.5,0
88.8,26.6,0
88.8,26.7,0
88.8,26.8,0
88.9,20.7,0
88.9,20.8,0
88.9,20.9,0
88.9,21,0
88.9,21.1,0
88.9,21.2,0
88.9,21.3,0
88.9,21.4,0
88.9,21.5,0
88.9,21.6,0
88.9,21.7,0
88.9,21.8,0
88.9,21.9,0
88.9,22,0
88.9,22.1,0
88.9,22.2,0
88.9,22.3,0
88.9,22.4,0
88.9,22.5,0.0523606017231941
88.9,22.6,0.054169412702322
88.9,22.7,0.0555306114256382
88.9,22.8,0.0565338246524334
88.9,22.9,0.0574058331549168
88.9,23,0.0581304244697094
88.9,23.1,0.0586982369422913
88.9,23.2,0.0591079033911228
88.9,23.3,0.0593660958111286
88.9,23.4,0.0594859644770622
88.9,23.5,0.0594848841428757
88.9,23.6,0.0593815483152866
88.9,23.7,0.0591941513121128
88.9,23.8,0.058933436870575
88.9,23.9,0.0586166605353355
88.9,24,0.0582523085176945
88.9,24.1,0.0578440502285957
88.9,24.2,0.0573944225907326
88.9,24.3,0.056902177631855
88.9,24.4,0.0563614293932915
88.9,24.5,0.0557624436914921
88.9,24.6,0.055097296833992
88.9,24.7,0.0540754720568657
88.9,24.8,0.0528477728366852
88.9,24.9,0.0515437573194504
88.9,25,0.0501818470656872
88.9,25.1,0.0487699136137962
88.9,25.2,0.0473267659544945
88.9,25.3,0.0458635054528713
88.9,25.4,0.0443903356790543
88.9,25.5,0.0429153926670551
88.9,25.6,0.041446965187788
88.9,25.7,0.0400040373206139
88.9,25.8,0.0385785102844238
88.9,25.9,0.0371887758374214
88.9,26,0.0358418114483356
88.9,26.1,0.0345427617430687
88.9,26.2,0.0332951471209526
88.9,26.3,0.032101035118103
88.9,26.4,0.0309615544974804
88.9,26.5,0.0298767555505037
88.9,26.6,0
88.9,26.7,0
88.9,26.8,0
89,20.7,0
89,20.8,0
89,20.9,0
89,21,0
89,21.1,0
89,21.2,0
89,21.3,0
89,21.4,0
89,21.5,0
89,21.6,0
89,21.7,0
89,21.8,0.0414714366197586
89,21.9,0.0432898700237274
89,22,0.0452129617333412
89,22.1,0.0472354590892792
89,22.2,0.0493582598865032
89,22.3,0.0515892840921879
89,22.4,0.0538268275558949
89,22.5,0.0556499250233173
89,22.6,0.0570423975586891
89,22.7,0.0583394803106785
89,22.8,0.0595165267586708
89,22.9,0.0605461932718754
89,23,0.0613898597657681
89,23.1,0.0620334595441818
89,23.2,0.0624840557575226
89,23.3,0.0627518147230148
89,23.4,0.0628570541739464
89,23.5,0.0628121122717857
89,23.6,0.062669426202774
89,23.7,0.0624445304274559
89,23.8,0.0621531456708908
89,23.9,0.0618082545697689
89,24,0.0614194944500923
89,24.1,0.0609961748123169
89,24.2,0.0605358257889748
89,24.3,0.0600333921611309
89,24.4,0.0594776943325996
89,24.5,0.0588533580303192
89,24.6,0.0581487566232681
89,24.7,0.0573563762009144
89,24.8,0.0564745962619781
89,24.9,0.0555053874850273
89,25,0.0542163141071796
89,25.1,0.0525159686803818
89,25.2,0.0507792271673679
89,25.3,0.0490266904234886
89,25.4,0.0472723841667175
89,25.5,0.0455267503857613
89,25.6,0.043800063431263
89,25.7,0.0421105213463306
89,25.8,0.0404638312757015
89,25.9,0.0388682410120964
89,26,0.0373354367911816
89,26.1,0.0358700938522816
89,26.2,0.0344747230410576
89,26.3,0.0331499837338924
89,26.4,0.0318952165544033
89,26.5,0.0307089071720839
89,26.6,0
89,26.7,0
89,26.8,0
89.1,20.7,0
89.1,20.8,0
89.1,20.9,0
89.1,21,0
89.1,21.1,0
89.1,21.2,0
89.1,21.3,0
89.1,21.4,0
89.1,21.5,0
89.1,21.6,0
89.1,21.7,0.0412484109401703
89.1,21.8,0.0431709177792072
89.1,21.9,0.045232679694891
89.1,22,0.0474369302392006
89.1,22.1,0.0498053878545761
89.1,22.2,0.0523215532302856
89.1,22.3,0.0549152828752995
89.1,22.4,0.0566364265978336
89.1,22.5,0.0583300441503525
89.1,22.6,0.0599944740533829
89.1,22.7,0.0615231990814209
89.1,22.8,0.0629045814275742
89.1,22.9,0.0641054287552834
89.1,23,0.0650859624147415
89.1,23.1,0.0658264234662056
89.1,23.2,0.0663342103362083
89.1,23.3,0.0665922686457634
89.1,23.4,0.0666679441928864
89.1,23.5,0.0665767341852188
89.1,23.6,0.0663768500089645
89.1,23.7,0.0660992413759232
89.1,23.8,0.0657561272382736
89.1,23.9,0.0653828606009483
89.1,24,0.0649792179465294
89.1,24.1,0.0645513832569122
89.1,24.2,0.0640939548611641
89.1,24.3,0.0635955333709717
89.1,24.4,0.0630362406373024
89.1,24.5,0.0623920485377312
89.1,24.6,0.0616463609039783
89.1,24.7,0.0607903189957142
89.1,24.8,0.0598238594830036
89.1,24.9,0.0587513148784637
89.1,25,0.0575814135372639
89.1,25.1,0.0563259832561016
89.1,25.2,0.0550002418458462
89.1,25.3,0.0529087260365486
89.1,25.4,0.0507639423012733
89.1,25.5,0.0486473515629768
89.1,25.6,0.0465719550848007
89.1,25.7,0.0445543490350246
89.1,25.8,0.042618416249752
89.1,25.9,0.0407588519155979
89.1,26,0.0389918312430382
89.1,26.1,0.0373210199177265
89.1,26.2,0.0357470475137234
89.1,26.3,0.0342677123844624
89.1,26.4,0.0328793786466122
89.1,26.5,0.0315775722265244
89.1,26.6,0
89.1,26.7,0
89.1,26.8,0
89.2,20.7,0
89.2,20.8,0
89.2,20.9,0
89.2,21,0
89.2,21.1,0
89.2,21.2,0
89.2,21.3,0
89.2,21.4,0
89.2,21.5,0
89.2,21.6,0
89.2,21.7,0.0428118631243706
89.2,21.8,0.0449726842343807
89.2,21.9,0.0473154596984386
89.2,22,0.0498605631291866
89.2,22.1,0.0526391826570034
89.2,22.2,0.0553365610539913
89.2,22.3,0.0573106855154037
89.2,22.4,0.0593317411839962
89.2,22.5,0.061329111456871
89.2,22.6,0.0632883235812187
89.2,22.7,0.0651211589574814
89.2,22.8,0.0667975023388863
89.2,22.9,0.0682311803102493
89.2,23,0.0693775564432144
89.2,23.1,0.0702180489897728
89.2,23.2,0.0707512125372887
89.2,23.3,0.0710027888417244
89.2,23.4,0.0710192993283272
89.2,23.5,0.0708586722612381
89.2,23.6,0.0705715864896774
89.2,23.7,0.0702174305915833
89.2,23.8,0.0698273479938507
89.2,23.9,0.0694136917591095
89.2,24,0.0689999535679817
89.2,24.1,0.0685838758945465
89.2,24.2,0.0681549832224846
89.2,24.3,0.0676840171217918
89.2,24.4,0.0671397373080254
89.2,24.5,0.0664838626980782
89.2,24.6,0.0656927078962326
89.2,24.7,0.0647580921649933
89.2,24.8,0.0636853352189064
89.2,24.9,0.0624843016266823
89.2,25,0.0611678138375282
89.2,25.1,0.0597509704530239
89.2,25.2,0.0582482628524303
89.2,25.3,0.0566733963787556
89.2,25.4,0.0550309717655182
89.2,25.5,0.0524760857224464
89.2,25.6,0.0499141290783882
89.2,25.7,0.0474542155861855
89.2,25.8,0.0451218262314796
89.2,25.9,0.0429167225956917
89.2,26,0.0408491380512714
89.2,26.1,0.0389205925166607
89.2,26.2,0.0371272005140781
89.2,26.3,0.0354624837636948
89.2,26.4,0.0339176543056965
89.2,26.5,0
89.2,26.6,0
89.2,26.7,0
89.2,26.8,0
89.3,20.7,0
89.3,20.8,0
89.3,20.9,0
89.3,21,0
89.3,21.1,0
89.3,21.2,0
89.3,21.3,0
89.3,21.4,0
89.3,21.5,0
89.3,21.6,0
89.3,21.7,0.0444459356367588
89.3,21.8,0.046876210719347
89.3,21.9,0.0495426915585995
89.3,22,0.0525139607489109
89.3,22.1,0.0554274581372738
89.3,22.2,0.0576229952275753
89.3,22.3,0.0599330700933933
89.3,22.4,0.0622957907617092
89.3,22.5,0.0646595880389214
89.3,22.6,0.0669963359832764
89.3,22.7,0.0692098513245583
89.3,22.8,0.0712184906005859
89.3,22.9,0.0729451179504395
89.3,23,0.0743160396814346
89.3,23.1,0.0752870365977287
89.3,23.2,0.0758562013506889
89.3,23.3,0.0760641843080521
89.3,23.4,0.0759846866130829
89.3,23.5,0.0757056102156639
89.3,23.6,0.075311616063118
89.3,23.7,0.0748701989650726
89.3,23.8,0.0744200721383095
89.3,23.9,0.0739918723702431
89.3,24,0.0735882222652435
89.3,24.1,0.0732066780328751
89.3,24.2,0.0728370696306229
89.3,24.3,0.0724378526210785
89.3,24.4,0.0719412267208099
89.3,24.5,0.0712877213954926
89.3,24.6,0.0704422071576118
89.3,24.7,0.0694019570946693
89.3,24.8,0.0681863501667976
89.3,24.9,0.0668163374066353
89.3,25,0.0653120949864388
89.3,25.1,0.0636926516890526
89.3,25.2,0.0619748122990131
89.3,25.3,0.0601724497973919
89.3,25.4,0.0582954958081245
89.3,25.5,0.0563530698418617
89.3,25.6,0.0540487803518772
89.3,25.7,0.0509649477899075
89.3,25.8,0.0480825714766979
89.3,25.9,0.0454180650413036
89.3,26,0.0429567955434322
89.3,26.1,0.0406996458768845
89.3,26.2,0.0386337973177433
89.3,26.3,0.0367440618574619
89.3,26.4,0
89.3,26.5,0
89.3,26.6,0
89.3,26.7,0
89.3,26.8,0
89.4,20.7,0
89.4,20.8,0
89.4,20.9,0
89.4,21,0
89.4,21.1,0
89.4,21.2,0
89.4,21.3,0
89.4,21.4,0
89.4,21.5,0
89.4,21.6,0
89.4,21.7,0.0461444035172462
89.4,21.8,0.0488775782287121
89.4,21.9,0.0519532896578312
89.4,22,0.0551812648773193
89.4,22.1,0.0575495213270187
89.4,22.2,0.0600894615054131
89.4,22.3,0.0627671927213669
89.4,22.4,0.0655128508806229
89.4,22.5,0.0683507472276688
89.4,22.6,0.0711524486541748
89.4,22.7,0.0738537907600403
89.4,22.8,0.0763473585247993
89.4,22.9,0.0784889757633209
89.4,23,0.0801630392670631
89.4,23.1,0.0812913477420807
89.4,23.2,0.0818733870983124
89.4,23.3,0.0819807425141335
89.4,23.4,0.0817371979355812
89.4,23.5,0.0812763273715973
89.4,23.6,0.0807219669222832
89.4,23.7,0.0801676735281944
89.4,23.8,0.0796666964888573
89.4,23.9,0.0792354196310043
89.4,24,0.0788806304335594
89.4,24.1,0.0785958990454674
89.4,24.2,0.0783477127552032
89.4,24.3,0.0780870690941811
89.4,24.4,0.077699102461338
89.4,24.5,0.0770747885107994
89.4,24.6,0.0761558264493942
89.4,24.7,0.0749570652842522
89.4,24.8,0.073531799018383
89.4,24.9,0.0719254538416862
89.4,25,0.0701683312654495
89.4,25.1,0.0682830139994621
89.4,25.2,0.0662882179021835
89.4,25.3,0.0641969218850136
89.4,25.4,0.0620250552892685
89.4,25.5,0.0597784072160721
89.4,25.6,0.0574764683842659
89.4,25.7,0.0551481731235981
89.4,25.8,0.0516654849052429
89.4,25.9,0.048362210392952
89.4,26,0.0453776009380817
89.4,26.1,0.0426954552531242
89.4,26.2,0
89.4,26.3,0
89.4,26.4,0
89.4,26.5,0
89.4,26.6,0
89.4,26.7,0
89.4,26.8,0
89.5,20.7,0
89.5,20.8,0
89.5,20.9,0
89.5,21,0
89.5,21.1,0
89.5,21.2,0
89.5,21.3,0
89.5,21.4,0
89.5,21.5,0
89.5,21.6,0
89.5,21.7,0.0478973351418972
89.5,21.8,0.0509682297706604
89.5,21.9,0.054467286914587
89.5,22,0.0570962578058243
89.5,22.1,0.0598053559660912
89.5,22.2,0.0627065226435661
89.5,22.3,0.065773144364357
89.5,22.4,0.0690429583191872
89.5,22.5,0.0724154114723206
89.5,22.6,0.0758427754044533
89.5,22.7,0.0792299136519432
89.5,22.8,0.082371897995472
89.5,22.9,0.0850840583443642
89.5,23,0.0871772393584251
89.5,23.1,0.0885069891810417
89.5,23.2,0.0890722572803497
89.5,23.3,0.0889973565936089
89.5,23.4,0.0884826332330704
89.5,23.5,0.0877455845475197
89.5,23.6,0.0869729146361351
89.5,23.7,0.08629010617733
89.5,23.8,0.0857566967606544
89.5,23.9,0.0853769332170486
89.5,24,0.085142582654953
89.5,24.1,0.0850384160876274
89.5,24.2,0.0850295796990395
89.5,24.3,0.0850307121872902
89.5,24.4,0.0848755314946175
89.5,24.5,0.0843360871076584
89.5,24.6,0.0833008959889412
89.5,24.7,0.0818351358175278
89.5,24.8,0.0800775811076164
89.5,24.9,0.078119233250618
89.5,25,0.0760015100240707
89.5,25.1,0.0737477988004684
89.5,25.2,0.0713771060109138
89.5,25.3,0.0689023062586784
89.5,25.4,0.0663382038474083
89.5,25.5,0.0636990889906883
89.5,25.6,0.0610023960471153
89.5,25.7,0.0582886263728142
89.5,25.8,0.0556013993918896
89.5,25.9,0.0518749505281448
89.5,26,0.0481880381703377
89.5,26.1,0.0449516624212265
89.5,26.2,0.0421110317111015
89.5,26.3,0
89.5,26.4,0
89.5,26.5,0
89.5,26.6,0
89.5,26.7,0
89.5,26.8,0
89.6,20.7,0
89.6,20.8,0
89.6,20.9,0
89.6,21,0
89.6,21.1,0
89.6,21.2,0
89.6,21.3,0
89.6,21.4,0
89.6,21.5,0
89.6,21.6,0
89.6,21.7,0.0496903024613857
89.6,21.8,0.0531625002622604
89.6,21.9,0.0562961809337139
89.6,22,0.0590770691633224
89.6,22.1,0.0621330887079239
89.6,22.2,0.0654182359576225
89.6,22.3,0.0690072327852249
89.6,22.4,0.0728422552347183
89.6,22.5,0.0769162774085999
89.6,22.6,0.0811755731701851
89.6,22.7,0.0854518711566925
89.6,22.8,0.0895529389381409
89.6,22.9,0.0931294187903404
89.6,23,0.0958432257175446
89.6,23.1,0.0974524691700935
89.6,23.2,0.0979249328374863
89.6,23.3,0.0974947288632393
89.6,23.4,0.0965267494320869
89.6,23.5,0.0953709781169891
89.6,23.6,0.094313956797123
89.6,23.7,0.0935139358043671
89.6,23.8,0.0930249989032745
89.6,23.9,0.0928177088499069
89.6,24,0.0928471013903618
89.6,24.1,0.0930856689810753
89.6,24.2,0.0935031101107597
89.6,24.3,0.0940040424466133
89.6,24.4,0.0943379178643227
89.6,24.5,0.0940226316452026
89.6,24.6,0.0927630886435509
89.6,24.7,0.0907881706953049
89.6,24.8,0.0884611159563065
89.6,24.9,0.0859460532665253
89.6,25,0.0832835733890533
89.6,25.1,0.0804881006479263
89.6,25.2,0.0775756239891052
89.6,25.3,0.0745578557252884
89.6,25.4,0.0714513510465622
89.6,25.5,0.0682716444134712
89.6,25.6,0.0650445446372032
89.6,25.7,0.0618250481784344
89.6,25.8,0.0586710907518864
89.6,25.9,0.055628452450037
89.6,26,0.0514786578714848
89.6,26.1,0.0475146658718586
89.6,26.2,0.0441260635852814
89.6,26.3,0
89.6,26.4,0
89.6,26.5,0
89.6,26.6,0
89.6,26.7,0
89.6,26.8,0
89.7,20.7,0
89.7,20.8,0
89.7,20.9,0
89.7,21,0
89.7,21.1,0
89.7,21.2,0
89.7,21.3,0
89.7,21.4,0
89.7,21.5,0
89.7,21.6,0
89.7,21.7,0.0515036359429359
89.7,21.8,0.0552015267312527
89.7,21.9,0.0579808205366135
89.7,22,0.0611006617546082
89.7,22.1,0.0644907206296921
89.7,22.2,0.0682585462927818
89.7,22.3,0.0723907724022865
89.7,22.4,0.0769290253520012
89.7,22.5,0.0818843394517899
89.7,22.6,0.087202399969101
89.7,22.7,0.0927522480487823
89.7,22.8,0.0982157737016678
89.7,22.9,0.103094197809696
89.7,23,0.106770142912865
89.7,23.1,0.108747854828835
89.7,23.2,0.108983382582664
89.7,23.3,0.107939220964909
89.7,23.4,0.106246471405029
89.7,23.5,0.104495950043201
89.7,23.6,0.103099554777145
89.7,23.7,0.10227832198143
89.7,23.8,0.102051198482513
89.7,23.9,0.10229504108429
89.7,24,0.102887138724327
89.7,24.1,0.103772185742855
89.7,24.2,0.104937225580215
89.7,24.3,0.106362596154213
89.7,24.4,0.107797667384148
89.7,24.5,0.108162850141525
89.7,24.6,0.10633747279644
89.7,24.7,0.103239163756371
89.7,24.8,0.0998652949929237
89.7,24.9,0.0964184999465942
89.7,25,0.0928791165351868
89.7,25.1,0.0892313271760941
89.7,25.2,0.0854836851358414
89.7,25.3,0.0816456228494644
89.7,25.4,0.0777352228760719
89.7,25.5,0.0737683698534966
89.7,25.6,0.0697881057858467
89.7,25.7,0.0658694803714752
89.7,25.8,0.0620932057499886
89.7,25.9,0.058513917028904
89.7,26,0.0551635473966599
89.7,26.1,0.0504292547702789
89.7,26.2,0.046348687261343
89.7,26.3,0.0429318100214005
89.7,26.4,0
89.7,26.5,0
89.7,26.6,0
89.7,26.7,0
89.7,26.8,0
89.8,20.7,0
89.8,20.8,0
89.8,20.9,0
89.8,21,0
89.8,21.1,0
89.8,21.2,0
89.8,21.3,0
89.8,21.4,0
89.8,21.5,0
89.8,21.6,0
89.8,21.7,0.0533255711197853
89.8,21.8,0.0566101931035519
89.8,21.9,0.0596922636032104
89.8,22,0.0630812868475914
89.8,22.1,0.0668777450919151
89.8,22.2,0.0711376741528511
89.8,22.3,0.0759086236357689
89.8,22.4,0.0812699794769287
89.8,22.5,0.0873033776879311
89.8,22.6,0.0939844697713852
89.8,22.7,0.101242661476135
89.8,22.8,0.108737103641033
89.8,22.9,0.115733444690704
89.8,23,0.121046423912048
89.8,23.1,0.123579181730747
89.8,23.2,0.123271197080612
89.8,23.3,0.121085464954376
89.8,23.4,0.118204198777676
89.8,23.5,0.115590684115887
89.8,23.6,0.113859839737415
89.8,23.7,0.113298110663891
89.8,23.8,0.113835655152798
89.8,23.9,0.115167364478111
89.8,24,0.116991095244884
89.8,24.1,0.119156539440155
89.8,24.2,0.121673427522182
89.8,24.3,0.124727889895439
89.8,24.4,0.128674909472466
89.8,24.5,0.130775839090347
89.8,24.6,0.127947956323624
89.8,24.7,0.122010737657547
89.8,24.8,0.116609059274197
89.8,24.9,0.111497595906258
89.8,25,0.106434769928455
89.8,25.1,0.101337380707264
89.8,25.2,0.0962010622024536
89.8,25.3,0.0910302996635437
89.8,25.4,0.0858457460999489
89.8,25.5,0.0806624963879585
89.8,25.6,0.0755444690585136
89.8,25.7,0.0706068351864815
89.8,25.8,0.0659613832831383
89.8,25.9,0.0616690628230572
89.8,26,0.0577473752200603
89.8,26.1,0.0537290461361408
89.8,26.2,0.0487835519015789
89.8,26.3,0.0447617173194885
89.8,26.4,0
89.8,26.5,0
89.8,26.6,0
89.8,26.7,0
89.8,26.8,0
89.9,20.7,0
89.9,20.8,0
89.9,20.9,0
89.9,21,0
89.9,21.1,0
89.9,21.2,0
89.9,21.3,0
89.9,21.4,0
89.9,21.5,0
89.9,21.6,0
89.9,21.7,0
89.9,21.8,0.0579646788537502
89.9,21.9,0.0613041669130325
89.9,22,0.0650181397795677
89.9,22.1,0.0692400336265564
89.9,22.2,0.0740235969424248
89.9,22.3,0.0794938504695892
89.9,22.4,0.085813395678997
89.9,22.5,0.0930816903710365
89.9,22.6,0.101474992930889
89.9,22.7,0.111013419926167
89.9,22.8,0.121488004922867
89.9,22.9,0.130823165178299
89.9,23,0.136131674051285
89.9,23.1,0.138236150145531
89.9,23.2,0.137259289622307
89.9,23.3,0.134576767683029
89.9,23.4,0.131517231464386
89.9,23.5,0.129058286547661
89.9,23.6,0.127376690506935
89.9,23.7,0.127685144543648
89.9,23.8,0.129483997821808
89.9,23.9,0.131660535931587
89.9,24,0.134101897478104
89.9,24.1,0.136592477560043
89.9,24.2,0.139136716723442
89.9,24.3,0.142027169466019
89.9,24.4,0.146770358085632
89.9,24.5,0.156268835067749
89.9,24.6,0.148390218615532
89.9,24.7,0.141273349523544
89.9,24.8,0.136454731225967
89.9,24.9,0.132204428315163
89.9,25,0.127333074808121
89.9,25.1,0.119513526558876
89.9,25.2,0.111839585006237
89.9,25.3,0.104312092065811
89.9,25.4,0.0969474241137505
89.9,25.5,0.089749701321125
89.9,25.6,0.0828138515353203
89.9,25.7,0.0763195976614952
89.9,25.8,0.0704125389456749
89.9,25.9,0.065142497420311
89.9,26,0.0604838915169239
89.9,26.1,0.0563679896295071
89.9,26.2,0.0514132231473923
89.9,26.3,0
89.9,26.4,0
89.9,26.5,0
89.9,26.6,0
89.9,26.7,0
89.9,26.8,0
90,20.7,0
90,20.8,0
90,20.9,0
90,21,0
90,21.1,0
90,21.2,0
90,21.3,0
90,21.4,0
90,21.5,0
90,21.6,0
90,21.7,0
90,21.8,0.0592708922922611
90,21.9,0.0628305822610855
90,22,0.0668758377432823
90,22.1,0.0715087205171585
90,22.2,0.0768437832593918
90,22.3,0.0830836296081543
90,22.4,0.0903883501887321
90,22.5,0.0991006046533585
90,22.6,0.10948932915926
90,22.7,0.121913947165012
90,22.8,0.133717685937881
90,22.9,0.143591120839119
90,23,0.151672929525375
90,23.1,0.154265642166138
90,23.2,0.151857510209084
90,23.3,0.147317051887512
90,23.4,0.14266999065876
90,23.5,0.139235958456993
90,23.6,0.137858226895332
90,23.7,0.138859450817108
90,23.8,0.141966536641121
90,23.9,0.146299317479134
90,24,0.15089824795723
90,24.1,0.155235528945923
90,24.2,0.159175783395767
90,24.3,0.162782892584801
90,24.4,0.167108178138733
90,24.5,0.174970358610153
90,24.6,0.172580406069756
90,24.7,0.162728026509285
90,24.8,0.155973523855209
90,24.9,0.150402531027794
90,25,0.144907921552658
90,25.1,0.139110773801804
90,25.2,0.132931143045425
90,25.3,0.124649524688721
90,25.4,0
90,25.5,0
90,25.6,0
90,25.7,0
90,25.8,0
90,25.9,0
90,26,0
90,26.1,0
90,26.2,0
90,26.3,0
90,26.4,0
90,26.5,0
90,26.6,0
90,26.7,0
90,26.8,0
90.1,20.7,0
90.1,20.8,0
90.1,20.9,0
90.1,21,0
90.1,21.1,0
90.1,21.2,0
90.1,21.3,0
90.1,21.4,0
90.1,21.5,0
90.1,21.6,0
90.1,21.7,0
90.1,21.8,0.060439720749855
90.1,21.9,0.0642356276512146
90.1,22,0.0685990899801254
90.1,22.1,0.0736312344670296
90.1,22.2,0.0795415043830872
90.1,22.3,0.0865014791488647
90.1,22.4,0.0948864445090294
90.1,22.5,0.105086639523506
90.1,22.6,0.11769263446331
90.1,22.7,0.131776034832001
90.1,22.8,0.143834754824638
90.1,22.9,0.15707229077816
90.1,23,0.169035285711288
90.1,23.1,0.172847583889961
90.1,23.2,0.168604269623756
90.1,23.3,0.161610946059227
90.1,23.4,0.15488313138485
90.1,23.5,0.150212615728378
90.1,23.6,0.148826763033867
90.1,23.7,0.151452854275703
90.1,23.8,0.158006995916367
90.1,23.9,0.1670191437006
90.1,24,0.176313847303391
90.1,24.1,0.184509888291359
90.1,24.2,0.191205278038979
90.1,24.3,0.19594743847847
90.1,24.4,0.199011832475662
90.1,24.5,0.201842352747917
90.1,24.6,0.201399013400078
90.1,24.7,0.192573845386505
90.1,24.8,0.183744296431541
90.1,24.9,0.176059678196907
90.1,25,0.16850857436657
90.1,25.1,0.16057488322258
90.1,25.2,0.152140960097313
90.1,25.3,0.143243357539177
90.1,25.4,0
90.1,25.5,0
90.1,25.6,0
90.1,25.7,0
90.1,25.8,0
90.1,25.9,0
90.1,26,0
90.1,26.1,0
90.1,26.2,0
90.1,26.3,0
90.1,26.4,0
90.1,26.5,0
90.1,26.6,0
90.1,26.7,0
90.1,26.8,0
90.2,20.7,0
90.2,20.8,0
90.2,20.9,0
90.2,21,0
90.2,21.1,0
90.2,21.2,0
90.2,21.3,0
90.2,21.4,0
90.2,21.5,0
90.2,21.6,0
90.2,21.7,0
90.2,21.8,0.0614680238068104
90.2,21.9,0.0654827728867531
90.2,22,0.0701296702027321
90.2,22.1,0.0755525752902031
90.2,22.2,0.0819649696350098
90.2,22.3,0.0896423533558846
90.2,22.4,0.099055752158165
90.2,22.5,0.11073337495327
90.2,22.6,0.125664502382278
90.2,22.7,0.138842329382896
90.2,22.8,0.153205007314682
90.2,22.9,0.169537633657455
90.2,23,0.185162767767906
90.2,23.1,0.191792756319046
90.2,23.2,0.186686307191849
90.2,23.3,0.177098229527473
90.2,23.4,0.167910784482956
90.2,23.5,0.161737218499184
90.2,23.6,0.160591974854469
90.2,23.7,0.166370630264282
90.2,23.8,0.180260494351387
90.2,23.9,0.200579017400742
90.2,24,0.222238659858704
90.2,24.1,0.240668132901192
90.2,24.2,0.254580706357956
90.2,24.3,0.261967688798904
90.2,24.4,0.262832164764404
90.2,24.5,0.259311407804489
90.2,24.6,0.253338068723679
90.2,24.7,0.242786765098572
90.2,24.8,0.230254411697388
90.2,24.9,0.218234032392502
90.2,25,0.20635998249054
90.2,25.1,0.193981796503067
90.2,25.2,0.180970951914787
90.2,25.3,0
90.2,25.4,0
90.2,25.5,0
90.2,25.6,0
90.2,25.7,0
90.2,25.8,0
90.2,25.9,0
90.2,26,0
90.2,26.1,0
90.2,26.2,0
90.2,26.3,0
90.2,26.4,0
90.2,26.5,0
90.2,26.6,0
90.2,26.7,0
90.2,26.8,0
90.3,20.7,0
90.3,20.8,0
90.3,20.9,0
90.3,21,0
90.3,21.1,0
90.3,21.2,0
90.3,21.3,0
90.3,21.4,0
90.3,21.5,0
90.3,21.6,0
90.3,21.7,0
90.3,21.8,0.0623343512415886
90.3,21.9,0.0665412619709969
90.3,22,0.0714279189705849
90.3,22.1,0.0771948248147964
90.3,22.2,0.0840434283018112
90.3,22.3,0.0923962891101837
90.3,22.4,0.10268422216177
90.3,22.5,0.11576471477747
90.3,22.6,0.131281211972237
90.3,22.7,0.144848957657814
90.3,22.8,0.16109710931778
90.3,22.9,0.179846465587616
90.3,23,0.19835539162159
90.3,23.1,0.208458378911018
90.3,23.2,0.204722106456757
90.3,23.3,0.193202301859856
90.3,23.4,0.181387469172478
90.3,23.5,0.173371702432632
90.3,23.6,0.172493264079094
90.3,23.7,0.183043420314789
90.3,23.8,0.210823029279709
90.3,23.9,0.260532230138779
90.3,24,0.314244657754898
90.3,24.1,0.340969920158386
90.3,24.2,0.356734454631805
90.3,24.3,0.360536068677902
90.3,24.4,0.3560451567173
90.3,24.5,0.346837133169174
90.3,24.6,0.336646676063538
90.3,24.7,0.325995922088623
90.3,24.8,0.314653396606445
90.3,24.9,0.302909910678864
90.3,25,0.280966699123383
90.3,25.1,0.256852149963379
90.3,25.2,0.232300490140915
90.3,25.3,0
90.3,25.4,0
90.3,25.5,0
90.3,25.6,0
90.3,25.7,0
90.3,25.8,0
90.3,25.9,0
90.3,26,0
90.3,26.1,0
90.3,26.2,0
90.3,26.3,0
90.3,26.4,0
90.3,26.5,0
90.3,26.6,0
90.3,26.7,0
90.3,26.8,0
90.4,20.7,0
90.4,20.8,0
90.4,20.9,0
90.4,21,0
90.4,21.1,0
90.4,21.2,0
90.4,21.3,0
90.4,21.4,0
90.4,21.5,0
90.4,21.6,0
90.4,21.7,0
90.4,21.8,0.0630158260464668
90.4,21.9,0.0673742815852165
90.4,22,0.0724563151597977
90.4,22.1,0.0784795135259628
90.4,22.2,0.0856970697641373
90.4,22.3,0.0945499166846275
90.4,22.4,0.1055828332901
90.4,22.5,0.119781255722046
90.4,22.6,0.134838804602623
90.4,22.7,0.149455413222313
90.4,22.8,0.167070955038071
90.4,22.9,0.187515497207642
90.4,23,0.208123132586479
90.4,23.1,0.221385732293129
90.4,23.2,0.220866903662682
90.4,23.3,0.209092572331429
90.4,23.4,0.19482584297657
90.4,23.5,0.184434369206429
90.4,23.6,0.182838395237923
90.4,23.7,0.197065129876137
90.4,23.8,0.241204336285591
90.4,23.9,0.331892460584641
90.4,24,0.447009950876236
90.4,24.1,0.542716383934021
90.4,24.2,0.574754655361176
90.4,24.3,0.561112225055695
90.4,24.4,0.530627071857452
90.4,24.5,0.496031701564789
90.4,24.6,0.465567469596863
90.4,24.7,0.439385414123535
90.4,24.8,0.416357964277267
90.4,24.9,0.394477814435959
90.4,25,0.373518973588943
90.4,25.1,0.350042015314102
90.4,25.2,0.323817938566208
90.4,25.3,0
90.4,25.4,0
90.4,25.5,0
90.4,25.6,0
90.4,25.7,0
90.4,25.8,0
90.4,25.9,0
90.4,26,0
90.4,26.1,0
90.4,26.2,0
90.4,26.3,0
90.4,26.4,0
90.4,26.5,0
90.4,26.6,0
90.4,26.7,0
90.4,26.8,0
90.5,20.7,0
90.5,20.8,0
90.5,20.9,0
90.5,21,0
90.5,21.1,0
90.5,21.2,0
90.5,21.3,0
90.5,21.4,0
90.5,21.5,0
90.5,21.6,0
90.5,21.7,0
90.5,21.8,0.0634940564632416
90.5,21.9,0.0679532662034035
90.5,22,0.0731866732239723
90.5,22.1,0.079370528459549
90.5,22.2,0.0868531465530396
90.5,22.3,0.0960314497351646
90.5,22.4,0.107589460909367
90.5,22.5,0.122521497309208
90.5,22.6,0.137178972363472
90.5,22.7,0.152438044548035
90.5,22.8,0.170876532793045
90.5,22.9,0.192342683672905
90.5,23,0.214332818984985
90.5,23.1,0.230125248432159
90.5,23.2,0.233332633972168
90.5,23.3,0.223526537418365
90.5,23.4,0.20761077105999
90.5,23.5,0.194233506917953
90.5,23.6,0.189719572663307
90.5,23.7,0.201506704092026
90.5,23.8,0.243233695626259
90.5,23.9,0.329194158315659
90.5,24,0.437632501125336
90.5,24.1,0.558232009410858
90.5,24.2,0.676261484622955
90.5,24.3,0.743753015995026
90.5,24.4,0.787231683731079
90.5,24.5,0.8027024269104
90.5,24.6,0.782621264457703
90.5,24.7,0.743441820144653
90.5,24.8,0.706585943698883
90.5,24.9,0.637346208095551
90.5,25,0.577782273292542
90.5,25.1,0.516873478889465
90.5,25.2,0.455261468887329
90.5,25.3,0
90.5,25.4,0
90.5,25.5,0
90.5,25.6,0
90.5,25.7,0
90.5,25.8,0
90.5,25.9,0
90.5,26,0
90.5,26.1,0
90.5,26.2,0
90.5,26.3,0
90.5,26.4,0
90.5,26.5,0
90.5,26.6,0
90.5,26.7,0
90.5,26.8,0
90.6,20.7,0
90.6,20.8,0
90.6,20.9,0
90.6,21,0
90.6,21.1,0
90.6,21.2,0
90.6,21.3,0
90.6,21.4,0
90.6,21.5,0
90.6,21.6,0
90.6,21.7,0
90.6,21.8,0.0637565702199936
90.6,21.9,0.0682660415768623
90.6,22,0.0735644400119781
90.6,22.1,0.0798340737819672
90.6,22.2,0.0874403268098831
90.6,22.3,0.0967761725187302
90.6,22.4,0.108545035123825
90.6,22.5,0.12379615008831
90.6,22.6,0.138198733329773
90.6,22.7,0.153666034340858
90.6,22.8,0.172361329197884
90.6,22.9,0.194176569581032
90.6,23,0.216854020953178
90.6,23.1,0.234482645988464
90.6,23.2,0.241099894046783
90.6,23.3,0.234763815999031
90.6,23.4,0.218890607357025
90.6,23.5,0.202394843101501
90.6,23.6,0.19302599132061
90.6,23.7,0.196688994765282
90.6,23.8,0.219413682818413
90.6,23.9,0.266829282045364
90.6,24,0.321088135242462
90.6,24.1,0.360555708408356
90.6,24.2,0.398070901632309
90.6,24.3,0.432746052742004
90.6,24.4,0.465943336486816
90.6,24.5,0.498919993638992
90.6,24.6,0.539791703224182
90.6,24.7,0.587943851947784
90.6,24.8,0.654982328414917
90.6,24.9,0.711634874343872
90.6,25,0.740944862365723
90.6,25.1,0.767220616340637
90.6,25.2,0.754427969455719
90.6,25.3,0
90.6,25.4,0
90.6,25.5,0
90.6,25.6,0
90.6,25.7,0
90.6,25.8,0
90.6,25.9,0
90.6,26,0
90.6,26.1,0
90.6,26.2,0
90.6,26.3,0
90.6,26.4,0
90.6,26.5,0
90.6,26.6,0
90.6,26.7,0
90.6,26.8,0
90.7,20.7,0
90.7,20.8,0
90.7,20.9,0
90.7,21,0
90.7,21.1,0
90.7,21.2,0
90.7,21.3,0
90.7,21.4,0
90.7,21.5,0
90.7,21.6,0
90.7,21.7,0
90.7,21.8,0.0637974590063095
90.7,21.9,0.0683049038052559
90.7,22,0.0735972076654434
90.7,22.1,0.0798595175147057
90.7,22.2,0.0874379277229309
90.7,22.3,0.0967446565628052
90.7,22.4,0.108423143625259
90.7,22.5,0.123528435826302
90.7,22.6,0.137866333127022
90.7,22.7,0.15309140086174
90.7,22.8,0.171445325016975
90.7,22.9,0.192878067493439
90.7,23,0.21548680961132
90.7,23.1,0.234243005514145
90.7,23.2,0.243701294064522
90.7,23.3,0.241167560219765
90.7,23.4,0.22731739282608
90.7,23.5,0.208625599741936
90.7,23.6,0.194200575351715
90.7,23.7,0.189295619726181
90.7,23.8,0.195977106690407
90.7,23.9,0.21346427500248
90.7,24,0.238676249980927
90.7,24.1,0.268647968769073
90.7,24.2,0.301736414432526
90.7,24.3,0.318774253129959
90.7,24.4,0.334358632564545
90.7,24.5,0.349003434181213
90.7,24.6,0.364544272422791
90.7,24.7,0.381094545125961
90.7,24.8,0.398438841104507
90.7,24.9,0.414610505104065
90.7,25,0.429447323083878
90.7,25.1,0.4336938560009
90.7,25.2,0.42091029882431
90.7,25.3,0
90.7,25.4,0
90.7,25.5,0
90.7,25.6,0
90.7,25.7,0
90.7,25.8,0
90.7,25.9,0
90.7,26,0
90.7,26.1,0
90.7,26.2,0
90.7,26.3,0
90.7,26.4,0
90.7,26.5,0
90.7,26.6,0
90.7,26.7,0
90.7,26.8,0
90.8,20.7,0
90.8,20.8,0
90.8,20.9,0
90.8,21,0
90.8,21.1,0
90.8,21.2,0
90.8,21.3,0
90.8,21.4,0
90.8,21.5,0
90.8,21.6,0
90.8,21.7,0
90.8,21.8,0.0636177808046341
90.8,21.9,0.0680718421936035
90.8,22,0.0732885897159576
90.8,22.1,0.0794525519013405
90.8,22.2,0.0868668332695961
90.8,22.3,0.0959410890936852
90.8,22.4,0.107257567346096
90.8,22.5,0.121772833168507
90.8,22.6,0.136236071586609
90.8,22.7,0.150785595178604
90.8,22.8,0.168198138475418
90.8,22.9,0.188462764024734
90.8,23,0.210137635469437
90.8,23.1,0.229265585541725
90.8,23.2,0.240954861044884
90.8,23.3,0.241912648081779
90.8,23.4,0.231134250760078
90.8,23.5,0.212052956223488
90.8,23.6,0.19402739405632
90.8,23.7,0.183010742068291
90.8,23.8,0.180134132504463
90.8,23.9,0.184153392910957
90.8,24,0.19293974339962
90.8,24.1,0.204668790102005
90.8,24.2,0.218168586492538
90.8,24.3,0.232481807470322
90.8,24.4,0.246935740113258
90.8,24.5,0.261345028877258
90.8,24.6,0.276273429393768
90.8,24.7,0.291650623083115
90.8,24.8,0.303840577602386
90.8,24.9,0.31001004576683
90.8,25,0.313462913036346
90.8,25.1,0.311091870069504
90.8,25.2,0.301261097192764
90.8,25.3,0
90.8,25.4,0
90.8,25.5,0
90.8,25.6,0
90.8,25.7,0
90.8,25.8,0
90.8,25.9,0
90.8,26,0
90.8,26.1,0
90.8,26.2,0
90.8,26.3,0
90.8,26.4,0
90.8,26.5,0
90.8,26.6,0
90.8,26.7,0
90.8,26.8,0
90.9,20.7,0
90.9,20.8,0
90.9,20.9,0
90.9,21,0
90.9,21.1,0
90.9,21.2,0
90.9,21.3,0
90.9,21.4,0
90.9,21.5,0
90.9,21.6,0
90.9,21.7,0
90.9,21.8,0
90.9,21.9,0.0675781220197678
90.9,22,0.0726553350687027
90.9,22.1,0.0786274895071983
90.9,22.2,0.0857761353254318
90.9,22.3,0.0944415256381035
90.9,22.4,0.10515521466732
90.9,22.5,0.118719600141048
90.9,22.6,0.13345368206501
90.9,22.7,0.146963939070702
90.9,22.8,0.162930354475975
90.9,22.9,0.181339368224144
90.9,23,0.201203107833862
90.9,23.1,0.219768926501274
90.9,23.2,0.232907667756081
90.9,23.3,0.236785769462585
90.9,23.4,0.22911348938942
90.9,23.5,0.211364522576332
90.9,23.6,0.192128017544746
90.9,23.7,0.177801251411438
90.9,23.8,0.169775888323784
90.9,23.9,0.167263552546501
90.9,24,0.168805867433548
90.9,24.1,0.173072934150696
90.9,24.2,0.179048597812653
90.9,24.3,0.185914248228073
90.9,24.4,0.193032816052437
90.9,24.5,0.200012624263763
90.9,24.6,0.206752553582191
90.9,24.7,0.212944746017456
90.9,24.8,0.218196585774422
90.9,24.9,0.221735686063766
90.9,25,0.222229868173599
90.9,25.1,0.217940211296082
90.9,25.2,0.208308175206184
90.9,25.3,0
90.9,25.4,0
90.9,25.5,0
90.9,25.6,0
90.9,25.7,0
90.9,25.8,0
90.9,25.9,0
90.9,26,0
90.9,26.1,0
90.9,26.2,0
90.9,26.3,0
90.9,26.4,0
90.9,26.5,0
90.9,26.6,0
90.9,26.7,0
90.9,26.8,0
91,20.7,0
91,20.8,0
91,20.9,0
91,21,0
91,21.1,0
91,21.2,0
91,21.3,0
91,21.4,0
91,21.5,0
91,21.6,0
91,21.7,0
91,21.8,0
91,21.9,0.066843144595623
91,22,0.0717257335782051
91,22.1,0.0774365812540054
91,22.2,0.0842156335711479
91,22.3,0.0923463478684425
91,22.4,0.102277621626854
91,22.5,0.114645786583424
91,22.6,0.12973552942276
91,22.7,0.141967281699181
91,22.8,0.156181856989861
91,22.9,0.172337383031845
91,23,0.189765974879265
91,23.1,0.206734731793404
91,23.2,0.220178261399269
91,23.3,0.226189821958542
91,23.4,0.221473276615143
91,23.5,0.206332430243492
91,23.6,0.187902107834816
91,23.7,0.17261153459549
91,23.8,0.162168636918068
91,23.9,0.156313955783844
91,24,0.154173657298088
91,24.1,0.154745832085609
91,24.2,0.157155275344849
91,24.3,0.160664111375809
91,24.4,0.164625436067581
91,24.5,0.168519601225853
91,24.6,0.17203463613987
91,24.7,0.174846172332764
91,24.8,0.17671100795269
91,24.9,0.177264273166656
91,25,0.176008969545364
91,25.1,0.172403931617737
91,25.2,0.166268080472946
91,25.3,0
91,25.4,0
91,25.5,0
91,25.6,0
91,25.7,0
91,25.8,0
91,25.9,0
91,26,0
91,26.1,0
91,26.2,0
91,26.3,0
91,26.4,0
91,26.5,0
91,26.6,0
91,26.7,0
91,26.8,0
91.1,20.7,0
91.1,20.8,0
91.1,20.9,0
91.1,21,0
91.1,21.1,0
91.1,21.2,0
91.1,21.3,0
91.1,21.4,0
91.1,21.5,0
91.1,21.6,0
91.1,21.7,0
91.1,21.8,0
91.1,21.9,0
91.1,22,0.0705365985631943
91.1,22.1,0.0759253352880478
91.1,22.2,0.0822688117623329
91.1,22.3,0.0897775217890739
91.1,22.4,0.0988179743289948
91.1,22.5,0.10986303538084
91.1,22.6,0.123582892119884
91.1,22.7,0.136182606220245
91.1,22.8,0.14854933321476
91.1,22.9,0.162359029054642
91.1,23,0.177153915166855
91.1,23.1,0.191841959953308
91.1,23.2,0.20436392724514
91.1,23.3,0.211454942822456
91.1,23.4,0.209427624940872
91.1,23.5,0.19743674993515
91.1,23.6,0.181092634797096
91.1,23.7,0.166514962911606
91.1,23.8,0.155655667185783
91.1,23.9,0.148320883512497
91.1,24,0.144186541438103
91.1,24.1,0.1428012996912
91.1,24.2,0.143511727452278
91.1,24.3,0.145682454109192
91.1,24.4,0.148649469017982
91.1,24.5,0.151618033647537
91.1,24.6,0.153953969478607
91.1,24.7,0.155140265822411
91.1,24.8,0.155052945017815
91.1,24.9,0.15371473133564
91.1,25,0.151170030236244
91.1,25.1,0.147360280156136
91.1,25.2,0.142311811447144
91.1,25.3,0
91.1,25.4,0
91.1,25.5,0
91.1,25.6,0
91.1,25.7,0
91.1,25.8,0
91.1,25.9,0
91.1,26,0
91.1,26.1,0
91.1,26.2,0
91.1,26.3,0
91.1,26.4,0
91.1,26.5,0
91.1,26.6,0
91.1,26.7,0
91.1,26.8,0
91.2,20.7,0
91.2,20.8,0
91.2,20.9,0
91.2,21,0
91.2,21.1,0
91.2,21.2,0
91.2,21.3,0
91.2,21.4,0
91.2,21.5,0
91.2,21.6,0
91.2,21.7,0
91.2,21.8,0
91.2,21.9,0
91.2,22,0
91.2,22.1,0.0741613060235977
91.2,22.2,0.0800185352563858
91.2,22.3,0.0868630185723305
91.2,22.4,0.0949689075350761
91.2,22.5,0.104672648012638
91.2,22.6,0.116413690149784
91.2,22.7,0.129965990781784
91.2,22.8,0.140544891357422
91.2,22.9,0.15213268995285
91.2,23,0.164383962750435
91.2,23.1,0.176552698016167
91.2,23.2,0.187272399663925
91.2,23.3,0.194184392690659
91.2,23.4,0.19407919049263
91.2,23.5,0.185327127575874
91.2,23.6,0.171827912330627
91.2,23.7,0.159009590744972
91.2,23.8,0.149124950170517
91.2,23.9,0.142045974731445
91.2,24,0.137029200792313
91.2,24.1,0.134568452835083
91.2,24.2,0.134692475199699
91.2,24.3,0.137109190225601
91.2,24.4,0.141442745923996
91.2,24.5,0.146342128515244
91.2,24.6,0.149850696325302
91.2,24.7,0.150491267442703
91.2,24.8,0.14817950129509
91.2,24.9,0.143657758831978
91.2,25,0.138147175312042
91.2,25.1,0.132453352212906
91.2,25.2,0.125658124685287
91.2,25.3,0
91.2,25.4,0
91.2,25.5,0
91.2,25.6,0
91.2,25.7,0
91.2,25.8,0
91.2,25.9,0
91.2,26,0
91.2,26.1,0
91.2,26.2,0
91.2,26.3,0
91.2,26.4,0
91.2,26.5,0
91.2,26.6,0
91.2,26.7,0
91.2,26.8,0
91.3,20.7,0
91.3,20.8,0
91.3,20.9,0
91.3,21,0
91.3,21.1,0
91.3,21.2,0
91.3,21.3,0
91.3,21.4,0
91.3,21.5,0
91.3,21.6,0
91.3,21.7,0
91.3,21.8,0
91.3,21.9,0
91.3,22,0
91.3,22.1,0
91.3,22.2,0.0775527432560921
91.3,22.3,0.0837243050336838
91.3,22.4,0.0909065082669258
91.3,22.5,0.0993251577019691
91.3,22.6,0.10925055295229
91.3,22.7,0.120994292199612
91.3,22.8,0.132539883255959
91.3,22.9,0.142122894525528
91.3,23,0.152064859867096
91.3,23.1,0.16180893778801
91.3,23.2,0.170385748147964
91.3,23.3,0.176183730363846
91.3,23.4,0.176902204751968
91.3,23.5,0.17095935344696
91.3,23.6,0.160661831498146
91.3,23.7,0.150202885270119
91.3,23.8,0.141834586858749
91.3,23.9,0.135977894067764
91.3,24,0.131659537553787
91.3,24.1,0.128829106688499
91.3,24.2,0.129134267568588
91.3,24.3,0.133110865950584
91.3,24.4,0.141724556684494
91.3,24.5,0.153566733002663
91.3,24.6,0.163102239370346
91.3,24.7,0.165948092937469
91.3,24.8,0.161155462265015
91.3,24.9,0.149137169122696
91.3,25,0.134721949696541
91.3,25.1,0.121033072471619
91.3,25.2,0.109864614903927
91.3,25.3,0
91.3,25.4,0
91.3,25.5,0
91.3,25.6,0
91.3,25.7,0
91.3,25.8,0
91.3,25.9,0
91.3,26,0
91.3,26.1,0
91.3,26.2,0
91.3,26.3,0
91.3,26.4,0
91.3,26.5,0
91.3,26.6,0
91.3,26.7,0
91.3,26.8,0
91.4,20.7,0
91.4,20.8,0
91.4,20.9,0
91.4,21,0
91.4,21.1,0
91.4,21.2,0
91.4,21.3,0
91.4,21.4,0
91.4,21.5,0
91.4,21.6,0
91.4,21.7,0
91.4,21.8,0
91.4,21.9,0
91.4,22,0
91.4,22.1,0
91.4,22.2,0
91.4,22.3,0
91.4,22.4,0.0867741927504539
91.4,22.5,0.094013936817646
91.4,22.6,0.102336473762989
91.4,22.7,0.111888438463211
91.4,22.8,0.122776791453362
91.4,22.9,0.132629856467247
91.4,23,0.140580788254738
91.4,23.1,0.148191079497337
91.4,23.2,0.154728621244431
91.4,23.3,0.159087717533112
91.4,23.4,0
91.4,23.5,0
91.4,23.6,0
91.4,23.7,0
91.4,23.8,0
91.4,23.9,0.129007920622826
91.4,24,0.124257691204548
91.4,24.1,0.121284328401089
91.4,24.2,0.122675158083439
91.4,24.3,0.129759654402733
91.4,24.4,0.141286432743073
91.4,24.5,0.157059282064438
91.4,24.6,0.172579720616341
91.4,24.7,0.182710289955139
91.4,24.8,0.18334673345089
91.4,24.9,0.166714653372765
91.4,25,0.136898681521416
91.4,25.1,0.113988630473614
91.4,25.2,0.100533068180084
91.4,25.3,0
91.4,25.4,0
91.4,25.5,0
91.4,25.6,0
91.4,25.7,0
91.4,25.8,0
91.4,25.9,0
91.4,26,0
91.4,26.1,0
91.4,26.2,0
91.4,26.3,0
91.4,26.4,0
91.4,26.5,0
91.4,26.6,0
91.4,26.7,0
91.4,26.8,0
91.5,20.7,0
91.5,20.8,0
91.5,20.9,0
91.5,21,0
91.5,21.1,0
91.5,21.2,0
91.5,21.3,0
91.5,21.4,0
91.5,21.5,0
91.5,21.6,0
91.5,21.7,0
91.5,21.8,0
91.5,21.9,0
91.5,22,0
91.5,22.1,0
91.5,22.2,0
91.5,22.3,0
91.5,22.4,0.082681767642498
91.5,22.5,0.0888715162873268
91.5,22.6,0.0958197340369225
91.5,22.7,0.103572450578213
91.5,22.8,0.112120039761066
91.5,22.9,0.121345907449722
91.5,23,0.130098938941956
91.5,23.1,0.13593527674675
91.5,23.2,0.140774264931679
91.5,23.3,0
91.5,23.4,0
91.5,23.5,0
91.5,23.6,0
91.5,23.7,0
91.5,23.8,0
91.5,23.9,0
91.5,24,0.114890858530998
91.5,24.1,0.113039672374725
91.5,24.2,0.11454189568758
91.5,24.3,0.120768956840038
91.5,24.4,0.13138821721077
91.5,24.5,0.141100347042084
91.5,24.6,0.150641992688179
91.5,24.7,0.157586246728897
91.5,24.8,0.158419623970985
91.5,24.9,0.148792609572411
91.5,25,0.128252148628235
91.5,25.1,0.106212519109249
91.5,25.2,0.0931357145309448
91.5,25.3,0
91.5,25.4,0
91.5,25.5,0
91.5,25.6,0
91.5,25.7,0
91.5,25.8,0
91.5,25.9,0
91.5,26,0
91.5,26.1,0
91.5,26.2,0
91.5,26.3,0
91.5,26.4,0
91.5,26.5,0
91.5,26.6,0
91.5,26.7,0
91.5,26.8,0
91.6,20.7,0
91.6,20.8,0
91.6,20.9,0
91.6,21,0
91.6,21.1,0
91.6,21.2,0
91.6,21.3,0
91.6,21.4,0
91.6,21.5,0
91.6,21.6,0
91.6,21.7,0
91.6,21.8,0
91.6,21.9,0
91.6,22,0
91.6,22.1,0
91.6,22.2,0
91.6,22.3,0
91.6,22.4,0.0787079557776451
91.6,22.5,0.0839817076921463
91.6,22.6,0.0897718071937561
91.6,22.7,0.0960681512951851
91.6,22.8,0.102806478738785
91.6,22.9,0.1098348274827
91.6,23,0.116866320371628
91.6,23.1,0.123423665761948
91.6,23.2,0
91.6,23.3,0
91.6,23.4,0
91.6,23.5,0
91.6,23.6,0
91.6,23.7,0
91.6,23.8,0
91.6,23.9,0
91.6,24,0
91.6,24.1,0.10468552261591
91.6,24.2,0.105591520667076
91.6,24.3,0.1092709004879
91.6,24.4,0.115208119153976
91.6,24.5,0.121392942965031
91.6,24.6,0.127245873212814
91.6,24.7,0.130177944898605
91.6,24.8,0.129280090332031
91.6,24.9,0.122062608599663
91.6,25,0.10910277813673
91.6,25.1,0.0958122909069061
91.6,25.2,0.0857333466410637
91.6,25.3,0
91.6,25.4,0
91.6,25.5,0
91.6,25.6,0
91.6,25.7,0
91.6,25.8,0
91.6,25.9,0
91.6,26,0
91.6,26.1,0
91.6,26.2,0
91.6,26.3,0
91.6,26.4,0
91.6,26.5,0
91.6,26.6,0
91.6,26.7,0
91.6,26.8,0
91.7,20.7,0
91.7,20.8,0
91.7,20.9,0
91.7,21,0
91.7,21.1,0
91.7,21.2,0
91.7,21.3,0
91.7,21.4,0
91.7,21.5,0
91.7,21.6,0
91.7,21.7,0
91.7,21.8,0
91.7,21.9,0
91.7,22,0
91.7,22.1,0
91.7,22.2,0
91.7,22.3,0.0707558840513229
91.7,22.4,0.0748912319540977
91.7,22.5,0.0793871358036995
91.7,22.6,0.0842176005244255
91.7,22.7,0.0893442034721375
91.7,22.8,0.0946865826845169
91.7,22.9,0.100093610584736
91.7,23,0.1053232178092
91.7,23.1,0
91.7,23.2,0
91.7,23.3,0
91.7,23.4,0
91.7,23.5,0
91.7,23.6,0
91.7,23.7,0
91.7,23.8,0
91.7,23.9,0
91.7,24,0
91.7,24.1,0.0965746268630028
91.7,24.2,0.0966547280550003
91.7,24.3,0.0982316583395004
91.7,24.4,0.100559011101723
91.7,24.5,0.102699771523476
91.7,24.6,0.104307428002357
91.7,24.7,0.104883663356304
91.7,24.8,0.103429898619652
91.7,24.9,0.0995214655995369
91.7,25,0.0930075943470001
91.7,25.1,0.0853415280580521
91.7,25.2,0.078390434384346
91.7,25.3,0
91.7,25.4,0
91.7,25.5,0
91.7,25.6,0
91.7,25.7,0
91.7,25.8,0
91.7,25.9,0
91.7,26,0
91.7,26.1,0
91.7,26.2,0
91.7,26.3,0
91.7,26.4,0
91.7,26.5,0
91.7,26.6,0
91.7,26.7,0
91.7,26.8,0
91.8,20.7,0
91.8,20.8,0
91.8,20.9,0
91.8,21,0
91.8,21.1,0
91.8,21.2,0
91.8,21.3,0
91.8,21.4,0
91.8,21.5,0
91.8,21.6,0.0462958700954914
91.8,21.7,0.0492282174527645
91.8,21.8,0.0525444820523262
91.8,21.9,0.0557921603322029
91.8,22,0.0584251694381237
91.8,22.1,0.0612826831638813
91.8,22.2,0.0643702894449234
91.8,22.3,0.0677061378955841
91.8,22.4,0.0712925046682358
